# .PCD v0.7 - Point Cloud Data file format
VERSION 0.7
FIELDS x y z
SIZE 4 4 4
TYPE F F F
COUNT 1 1 1
WIDTH 1490
HEIGHT 1
VIEWPOINT 0 0 0 1 0 0 0
POINTS 1490
DATA ascii
3.0358875 -1.8349795 -0.43556106
3.5667322 -2.1566877 -0.36465961
3.9984636 -2.4196484 -0.24493231
4.4728742 -2.7088687 -0.091276079
1.9564801 -1.1886232 -0.61340117
7.3035774 -4.4388986 0.14918317
2.1763098 -1.3232169 -0.58802211
11.907221 -7.2425504 0.73040068
2.4405327 -1.4844506 -0.55525422
2.7368665 -1.6660043 -0.50747347
3.0294638 -1.8455657 -0.43556106
3.5421686 -2.158756 -0.3629165
4.013865 -2.4481509 -0.2463977
4.4497366 -2.7161307 -0.090996847
1.949024 -1.1934278 -0.6123659
7.1396856 -4.3734908 0.14614646
2.1799853 -1.3358967 -0.59027159
11.897192 -7.2934647 0.73134273
2.4336624 -1.4919344 -0.55487263
2.7327182 -1.6765803 -0.50778633
3.0263863 -1.8582065 -0.43604854
3.5261235 -2.1658936 -0.36204496
4.0903687 -2.5144439 -0.25163129
4.4402285 -2.7316468 -0.090996847
1.9497783 -1.2032677 -0.61391884
7.0971508 -4.381578 0.14558797
2.1769671 -1.3445221 -0.59072149
10.724764 -6.6263356 0.66068918
2.4317801 -1.5024844 -0.55563581
2.7218087 -1.6829927 -0.50684774
3.0215697 -1.8698041 -0.43629229
3.5049891 -2.1697993 -0.36065045
4.0730782 -2.5234473 -0.25110796
1.9554088 -1.2161881 -0.6170246
7.1174684 -4.4285107 0.14632098
2.1606796 -1.3449045 -0.58757222
10.693091 -6.658452 0.66016579
2.4465194 -1.5234165 -0.56021523
21.270842 -13.250237 2.1924899
2.7226233 -1.6966621 -0.5080992
21.296137 -13.276315 3.0813446
3.0116556 -1.8782389 -0.43580481
3.4990845 -2.1830754 -0.36082479
4.11168 -2.5672679 -0.25403875
5.1790891 -3.236254 -0.1065993
1.9642466 -1.2312143 -0.62116575
7.3222084 -4.5914321 0.1508586
2.162575 -1.3565806 -0.5893718
12.424114 -7.7966537 0.76871061
2.4428496 -1.5329909 -0.56059688
20.735104 -13.017194 2.1419394
2.7250483 -1.7114089 -0.50966352
21.044598 -13.221732 3.0516086
2.9933164 -1.8813456 -0.43409866
3.4965026 -2.1984577 -0.36134771
4.0908608 -2.5741587 -0.25330606
1.9583036 -1.2370316 -0.62064809
6.9680467 -4.4033141 0.14387764
2.1677098 -1.3703691 -0.59207124
12.477537 -7.8879704 0.7736302
2.4258687 -1.534163 -0.55792552
20.11034 -12.723058 2.0819762
2.7157197 -1.7187973 -0.50903779
20.511934 -12.987159 2.9809244
2.9887381 -1.8923235 -0.43434238
3.4820752 -2.2063839 -0.36065045
4.0616102 -2.575588 -0.25205001
5.1248574 -3.2510788 -0.1059361
1.9460415 -1.238333 -0.61805987
6.9129205 -4.4006238 0.14303991
2.166441 -1.3796434 -0.59297103
12.341808 -7.85957 0.76682651
2.4158003 -1.5390347 -0.5567807
19.711842 -12.562665 2.0450222
2.7150021 -1.7309797 -0.50997645
19.87126 -12.674021 2.8939095
2.9841201 -1.9032915 -0.43458611
3.4965718 -2.231854 -0.3629165
4.0732446 -2.6019444 -0.25330606
5.1157336 -3.2691326 -0.10597102
1.940298 -1.2437371 -0.61754227
6.9386897 -4.4494305 0.14387764
2.1520123 -1.3805069 -0.59027159
12.610137 -8.0924559 0.78524876
2.4205973 -1.5533993 -0.55907035
19.177149 -12.311511 1.9937748
2.7075846 -1.7389058 -0.50966352
19.506794 -12.532755 2.846868
2.9858079 -1.9190631 -0.43580481
3.4958553 -2.2477472 -0.36361378
4.0629144 -2.614357 -0.2532014
5.1143789 -3.2934656 -0.10618044
1.9440585 -1.2557434 -0.62013048
6.9600663 -4.4975009 0.14464554
2.1504536 -1.3901262 -0.59117138
9.9470444 -6.43257 0.6208092
2.423403 -1.5671699 -0.56097847
18.710825 -12.104574 1.9496739
2.7097902 -1.7537128 -0.51122791
18.983019 -12.290067 2.7766712
2.960763 -1.9176035 -0.43312368
3.487988 -2.2599361 -0.36361378
4.1090651 -2.6643813 -0.25665554
5.1213036 -3.323272 -0.1065644
1.9429014 -1.2646295 -0.62116575
6.9560537 -4.5294061 0.14488988
2.1504865 -1.4008151 -0.59252113
14.594799 -9.5106001 0.91294849
2.4113386 -1.571332 -0.559452
18.267883 -11.908683 1.9078392
2.7102704 -1.7674774 -0.51247936
18.43292 -12.02544 2.7023311
2.947402 -1.923587 -0.43214872
3.4867513 -2.2764549 -0.36431101
4.2117634 -2.7519033 -0.26366857
5.1096716 -3.3411288 -0.1065644
1.9336288 -1.2682251 -0.61961281
6.9485612 -4.5591455 0.1450644
2.1504712 -1.4115211 -0.59387082
14.578208 -9.5724506 0.91399521
2.4025567 -1.5775846 -0.55868876
17.773254 -11.674845 1.8604264
2.7123387 -1.7823511 -0.51404375
18.01429 -11.842179 2.6470025
2.9473038 -1.9382265 -0.43312368
3.4704609 -2.2831366 -0.36343944
4.2188139 -2.7775712 -0.26471528
5.0712605 -3.3413413 -0.10600592
1.9243551 -1.2717718 -0.61805987
6.8909025 -4.5558014 0.14419177
2.1520326 -1.4233193 -0.59567046
9.8858023 -6.5407882 0.62122786
2.3986726 -1.5870447 -0.55907035
17.405092 -11.520179 1.8260871
2.6929243 -1.7830834 -0.51154077
17.585581 -11.648473 2.5899675
2.9339011 -1.9441167 -0.43214872
3.467051 -2.2991445 -0.36396238
4.2290645 -2.8055298 -0.26597136
5.08289 -3.3745067 -0.10649458
1.9164654 -1.2766743 -0.6170246
6.8466654 -4.5609808 0.14359841
2.1438076 -1.4286611 -0.59477061
12.633165 -8.4220896 0.79571593
2.404273 -1.6034509 -0.56174171
17.044535 -11.371591 1.7926192
2.6830847 -1.7907485 -0.51091504
17.179916 -11.466246 2.5361013
2.9403045 -1.9631642 -0.43409866
3.4523778 -2.3068051 -0.36326513
4.2353559 -2.832113 -0.26701808
5.0644317 -3.3877816 -0.10635497
1.9216216 -1.2898161 -0.62013048
6.8963084 -4.6306338 0.1449946
2.1353219 -1.4343357 -0.59387082
12.565558 -8.4405212 0.7933085
2.4084384 -1.6184034 -0.56403142
16.639309 -11.185369 1.7540965
2.6866527 -1.8067172 -0.51279223
16.846245 -11.333014 2.4929595
2.923208 -1.9672778 -0.4326362
3.4443047 -2.3188422 -0.36326513
4.2221317 -2.8446479 -0.26680872
5.0542326 -3.4065566 -0.10638987
1.9235084 -1.3008448 -0.62220097
6.943861 -4.6960468 0.14632098
2.1273255 -1.4392248 -0.59297103
12.109275 -8.1955137 0.76630318
2.3881433 -1.6168945 -0.56059688
16.31148 -11.047856 1.7235919
2.6871889 -1.8200479 -0.51404375
16.437164 -11.137166 2.4378746
2.9100952 -1.9725058 -0.43166125
3.4477317 -2.33868 -0.36448529
4.1895375 -2.8429329 -0.26534331
5.0555458 -3.4331663 -0.10666911
1.9175876 -1.3061286 -0.62168342
6.914206 -4.7112484 0.14604174
2.1319504 -1.4532275 -0.59567046
9.8128328 -6.6888418 0.62237924
2.3860123 -1.6270173 -0.56136012
16.004826 -10.917751 1.6950049
2.682451 -1.8305298 -0.51435655
16.142426 -11.019876 2.3998513
2.9048314 -1.9837713 -0.431905
3.4284413 -2.3422327 -0.36326513
4.1433158 -2.8327408 -0.26304054
5.0523858 -3.4555566 -0.10684364
1.9050523 -1.3073488 -0.61909521
5.797152 -3.9783158 0.12272533
2.1383655 -1.4680098 -0.59881973
11.053851 -7.5914216 0.70276725
2.3835549 -1.6375593 -0.5621233
15.717037 -10.802021 1.6685095
2.6763659 -1.8394153 -0.51435655
15.878425 -10.917018 2.3659718
2.9031439 -1.9967681 -0.4326362
3.2233014 -2.2186284 -0.34234774
4.2029896 -2.8940382 -0.26743674
5.0386462 -3.4720368 -0.10680873
1.9150095 -1.3235444 -0.62375391
5.7717161 -3.9905672 0.12248099
2.1380363 -1.478791 -0.60016948
12.700922 -8.7879772 0.80942798
2.3942559 -1.6566252 -0.56593949
15.499285 -10.728212 1.649161
2.6683047 -1.8476219 -0.51404375
15.522011 -10.751959 2.3184426
2.910841 -2.0170653 -0.43482983
3.2142889 -2.2281699 -0.34217343
4.2174773 -2.9257684 -0.26900685
5.0478501 -3.5044291 -0.10726249
1.9103779 -1.3302211 -0.62375391
5.774159 -4.0221195 0.12283003
2.1248672 -1.4806743 -0.59791994
13.269843 -9.2502861 0.84773785
2.3965116 -1.6705862 -0.56784761
15.182285 -10.58737 1.6193538
2.6634591 -1.8580549 -0.51435655
15.313457 -10.68679 2.29285
2.8842502 -2.0135777 -0.431905
3.2048581 -2.2382357 -0.34199914
4.1761346 -2.9187331 -0.26701808
5.0355868 -3.5220277 -0.10726249
1.9120489 -1.3413192 -0.62582451
6.8485918 -4.8061309 0.14604174
2.111711 -1.4824841 -0.59567046
11.189498 -7.8582768 0.71658397
2.384239 -1.6744281 -0.56632113
14.900693 -10.468498 1.5932069
2.6666541 -1.8741558 -0.5162338
15.011364 -10.554078 2.2531207
2.8707089 -2.0190656 -0.43093005
3.205173 -2.2551417 -0.34287068
4.2002153 -2.9574397 -0.26921618
4.5802732 -3.227437 -0.097803287
1.9089328 -1.3491002 -0.62634212
2.1192513 -1.4988483 -0.59926963
11.095151 -7.8499918 0.71229243
2.3591475 -1.6691335 -0.56174171
14.626628 -10.352397 1.5677575
2.669769 -1.8903017 -0.51811105
14.744405 -10.443483 2.2185097
2.8685026 -2.0325167 -0.43166125
3.2216637 -2.2835984 -0.34548536
4.2012696 -2.9801722 -0.2699489
4.5477815 -3.2283576 -0.097349517
1.8947698 -1.3490329 -0.6232363
2.1219418 -1.5118908 -0.60151911
11.092077 -7.9060612 0.71386248
2.3644977 -1.6853347 -0.56441307
14.369778 -10.246078 1.5440512
2.6486807 -1.8892856 -0.51529521
14.462245 -10.319629 2.1814616
2.8597748 -2.0413642 -0.43141752
3.419168 -2.4424722 -0.36762294
4.210341 -3.0087543 -0.27120495
4.5787754 -3.2744565 -0.09825705
1.8929516 -1.3582208 -0.62427157
5.5793371 -4.0032573 0.11986313
2.1166518 -1.5192884 -0.60151911
11.074146 -7.9517212 0.71449053
2.3678718 -1.7008619 -0.56670272
11.249861 -8.0838461 1.2119877
2.6433423 -1.9001336 -0.51560807
14.121494 -10.15106 2.1353948
2.8590784 -2.0559697 -0.43239245
3.4348791 -2.4718487 -0.37023759
4.1863194 -3.0148282 -0.27036759
5.0313501 -3.6247211 -0.10823982
1.8913302 -1.3670834 -0.62530684
5.6197219 -4.0635176 0.1210499
2.1015952 -1.5201836 -0.59881973
11.044704 -7.9891596 0.71438587
2.3682823 -1.7137208 -0.5682292
13.774795 -9.9712877 1.4877486
2.6446929 -1.9151419 -0.5171724
13.944333 -10.101434 2.1141896
2.845094 -2.0617759 -0.43141752
3.4520397 -2.5025344 -0.37302658
4.1967869 -3.0446699 -0.27172831
5.0316148 -3.6516578 -0.10851907
1.8881085 -1.3748143 -0.62582451
5.6191483 -4.0915475 0.12132913
2.0949674 -1.5259968 -0.59836984
11.086161 -8.0782413 0.71888679
2.3622861 -1.7219771 -0.5682292
13.522577 -9.8608322 1.4642165
2.64152 -1.9262294 -0.51779813
13.665386 -9.968626 2.0768976
2.8350341 -2.0688589 -0.43093005
3.4465013 -2.5169194 -0.37337521
4.1898923 -3.060926 -0.27193764
5.0139942 -3.6656587 -0.10841435
1.883539 -1.381068 -0.62582451
5.6128945 -4.1170511 0.12150366
2.0990546 -1.5402175 -0.60106927
13.09945 -9.6154642 0.85161078
2.3518147 -1.726316 -0.56708437
13.298697 -9.7652912 1.4434733
2.6411481 -1.940116 -0.51904958
13.412956 -9.8563986 2.0437491
2.8309941 -2.0810938 -0.43141752
3.4473233 -2.5360179 -0.37442106
4.1823997 -3.0779006 -0.272147
5.0140495 -3.6926253 -0.10869358
1.8738034 -1.3845183 -0.62427157
5.5840139 -4.1259232 0.12118951
2.1062026 -1.5568019 -0.6046685
11.047158 -8.1685009 0.72003812
2.3486285 -1.7372593 -0.56784761
13.054607 -9.6599026 1.4208128
2.6308441 -1.9474325 -0.51842386
13.191794 -9.7649755 2.0152316
2.8253078 -2.0921445 -0.43166125
3.4352486 -2.5456638 -0.37407246
4.1742992 -3.0955884 -0.27235636
5.0107656 -3.7172537 -0.10890301
1.8720585 -1.3933573 -0.62530684
6.7429328 -5.0205364 0.14673983
2.0848539 -1.5528704 -0.60016948
11.028356 -8.217289 0.72077084
2.3456986 -1.747793 -0.56861085
11.003232 -8.2015562 1.2006575
2.6224465 -1.9554235 -0.51811105
12.966563 -9.67202 1.9862267
2.8208029 -2.1048601 -0.43214872
3.4450519 -2.5725422 -0.37616417
4.1890693 -3.1292653 -0.27403107
5.0035143 -3.7403831 -0.10904264
1.8762119 -1.4071642 -0.62841266
6.7221675 -5.0416446 0.14667003
2.0825381 -1.5624776 -0.60106927
11.015579 -8.267725 0.72181761
2.3565466 -1.769345 -0.57280862
12.636268 -9.4910269 1.3826387
2.6136827 -1.9638355 -0.51779813
12.691494 -9.5359716 1.9491785
2.807091 -2.1099226 -0.43117377
12.84079 -9.6551628 2.5445633
3.4424202 -2.5893428 -0.37686142
4.1711893 -3.1397932 -0.27361241
4.8818007 -3.6760297 -0.10666911
1.8717818 -1.4130514 -0.62841266
6.7054119 -5.0639081 0.14667003
2.08512 -1.5752482 -0.60331875
10.919432 -8.2493172 0.71721202
2.341579 -1.7696377 -0.57051897
12.453815 -9.4153299 1.3659048
2.6169534 -1.9791864 -0.51967537
12.544237 -9.4905739 1.9313855
2.7953303 -2.1156259 -0.43044254
12.572551 -9.5154457 2.4973202
3.4310915 -2.5977395 -0.3765128
4.1644888 -3.1552944 -0.27382174
4.7188306 -3.5765975 -0.10335316
1.8606869 -1.4148993 -0.62634212
6.5723834 -4.9977565 0.14412197
2.0860887 -1.5868732 -0.60511833
10.792027 -8.2123957 0.71072239
2.319766 -1.7659087 -0.56670272
12.243341 -9.3235502 1.3463819
2.6245198 -1.9986247 -0.52249116
12.340576 -9.4009991 1.9048181
2.7867205 -2.1236806 -0.43019882
12.413583 -9.4634657 2.4722905
3.4140818 -2.6036596 -0.37564126
4.1635299 -3.1763558 -0.2744498
4.8382397 -3.6937647 -0.10625025
1.8544509 -1.4198873 -0.62582451
6.6628504 -5.103353 0.14649549
2.07899 -1.5929602 -0.6046685
11.871328 -9.0993185 0.78388804
2.335712 -1.7903124 -0.57204539
12.028949 -9.2234678 1.3261617
2.6253643 -2.0137849 -0.52405554
12.147046 -9.3207569 1.8799566
2.7840145 -2.1370215 -0.43093005
12.204997 -9.371995 2.4372492
3.4038484 -2.6137533 -0.37546691
4.1492496 -3.188436 -0.27424043
4.6810646 -3.5997016 -0.10307391
1.8571322 -1.4322507 -0.62841266
6.6639953 -5.1412368 0.14691436
2.0749595 -1.6013981 -0.60511833
11.694048 -9.0284109 0.7742582
2.3387723 -1.8056533 -0.5743351
11.861072 -9.1606655 1.3111709
2.6042504 -2.0120676 -0.5212397
11.957373 -9.2417078 1.8555828
2.7828195 -2.1515832 -0.431905
12.036268 -9.3093967 2.4100296
3.4025846 -2.6317134 -0.37633851
4.1286178 -3.195565 -0.27361241
4.6068144 -3.5682631 -0.10171262
1.8566982 -1.4422799 -0.62996554
6.6096911 -5.1362467 0.14611155
2.0739725 -1.6122195 -0.60646808
11.512681 -8.9526997 0.76431441
2.3247063 -1.8077801 -0.57242703
11.673336 -9.0809011 1.2939141
2.5987699 -2.0223589 -0.52155256
11.771532 -9.163887 1.8316964
2.7705934 -2.157625 -0.43117377
11.877475 -9.2530222 2.3846872
3.3980923 -2.6472483 -0.37686142
4.1142883 -3.2075014 -0.27340308
4.625864 -3.608923 -0.10241073
1.8607813 -1.4558949 -0.63307142
6.6468368 -5.2024255 0.14733322
2.063729 -1.6158448 -0.60511833
11.291104 -8.8438139 0.75164908
2.3199272 -1.8170946 -0.57280862
11.516102 -9.0232878 1.2799692
2.601023 -2.0387297 -0.52342981
11.591069 -9.0885592 1.8085413
2.7567976 -2.1623824 -0.43019882
11.713008 -9.1907749 2.3580933
3.3935337 -2.6627836 -0.37738436
4.107779 -3.2255433 -0.27371708
4.5503445 -3.5756266 -0.10101452
1.8496188 -1.4575984 -0.63100088
6.702445 -5.2837815 0.14897373
2.0596063 -1.6242456 -0.60556829
11.203714 -8.8386402 0.74788088
2.3104873 -1.8227496 -0.57204539
11.270265 -8.8943319 1.2560885
2.6000924 -2.0526924 -0.52468127
11.415952 -9.0157747 1.7861173
2.7570207 -2.1781452 -0.43141752
11.522775 -9.1066723 2.3261807
3.3962545 -2.6850886 -0.37877885
4.099628 -3.2423408 -0.27392641
4.5127473 -3.5716326 -0.10045605
1.8457767 -1.4655691 -0.63151848
6.6808281 -5.3046589 0.14890394
2.0630798 -1.6386974 -0.60826772
11.103991 -8.8230238 0.74327534
2.306865 -1.8336488 -0.57280862
11.159616 -8.8735781 1.247373
2.5894594 -2.0597491 -0.52405554
11.182449 -8.8949223 1.7544312
2.7478473 -2.1865196 -0.43117377
11.361094 -9.043498 2.2998998
3.3728333 -2.6857574 -0.37721002
4.1048985 -3.2710364 -0.27507779
4.5409079 -3.6197715 -0.10136358
1.8481934 -1.4780359 -0.6341067
6.6910086 -5.3528438 0.14956713
2.0540168 -1.6438125 -0.60736787
11.013868 -8.8143072 0.73929775
2.3050482 -1.8453712 -0.57395351
11.074143 -8.8688889 1.2412721
2.5884204 -2.0737162 -0.525307
11.09246 -8.8899145 1.7454128
2.7444615 -2.2003012 -0.431905
11.135264 -8.9274111 2.2604783
3.3681006 -2.7012541 -0.37773296
4.0716486 -3.2678432 -0.27361241
4.5500755 -3.6531272 -0.10185225
1.8400139 -1.4820547 -0.63307142
6.6794505 -5.3800201 0.14970674
2.0455194 -1.6481696 -0.60646808
10.905284 -8.7900305 0.73406422
2.3001213 -1.8546383 -0.5743351
10.982637 -8.8587065 1.2344739
2.5830672 -2.0835283 -0.52561986
10.999578 -8.8755398 1.7354196
2.7325158 -2.2056499 -0.43117377
11.017967 -8.8967304 2.2429576
3.3679504 -2.7205064 -0.37877885
34.269817 -27.681898 8.5631266
4.0716639 -3.2901142 -0.2743451
4.526412 -3.6601865 -0.10160792
1.8335885 -1.4869316 -0.63255376
6.6839247 -5.4221997 0.15023032
2.0473197 -1.6614397 -0.60871756
10.793901 -8.7625856 0.72862124
2.2939582 -1.8622558 -0.5743351
10.858856 -8.8184614 1.223841
2.5788448 -2.0950229 -0.52624559
10.894584 -8.8537884 1.7237202
2.7155583 -2.2076616 -0.42971134
10.942401 -8.8989916 2.2338843
3.3568885 -2.7309885 -0.37860456
4.0415654 -3.2891788 -0.27308905
4.4624395 -3.6342919 -0.10045605
1.8296225 -1.4948642 -0.63307142
6.6107578 -5.4012156 0.14900865
2.0430167 -1.6698092 -0.60916752
10.698306 -8.7471132 0.72422504
2.2855976 -1.8694079 -0.57395351
10.757071 -8.8014269 1.2159969
2.5787919 -2.1107168 -0.52780992
10.79295 -8.8339272 1.7125082
2.7155151 -2.2234149 -0.43093005
10.828749 -8.8695421 2.2169895
3.3396292 -2.736376 -0.37773296
4.0402946 -3.3128345 -0.27382174
4.4497261 -3.649847 -0.10045605
1.8214096 -1.4987867 -0.63203615
6.6094437 -5.4406595 0.1494275
2.0383871 -1.6785247 -0.60961735
10.592161 -8.7221918 0.71909612
2.2805736 -1.8786231 -0.5743351
10.644791 -8.7717686 1.2067584
2.5744572 -2.1222188 -0.52843571
10.69005 -8.8153305 1.7012962
2.7073476 -2.2333529 -0.43093005
10.721531 -8.8444357 2.2013459
3.3192999 -2.73914 -0.3765128
4.0302458 -3.3281894 -0.27392641
4.446209 -3.6729984 -0.10066548
1.8280666 -1.514997 -0.63617724
6.6160011 -5.4829636 0.14998598
2.0328097 -1.6852751 -0.60961735
10.494006 -8.7030134 0.71449053
2.2800457 -1.8915864 -0.57586157
10.551247 -8.7567034 1.1996117
2.5522048 -2.1181288 -0.525307
10.576755 -8.7809906 1.6878905
2.7090893 -2.249928 -0.43239245
10.62222 -8.8250017 2.1872668
3.3035893 -2.745616 -0.37581557
3.9946139 -3.3211057 -0.27225167
4.4702544 -3.7191916 -0.1015032
1.8304493 -1.5272391 -0.63876545
6.5968218 -5.5060244 0.14998598
2.0269144 -1.6923608 -0.60961735
10.405313 -8.690938 0.710513
2.279788 -1.9041711 -0.57738805
10.454878 -8.7354345 1.1919419
2.5508583 -2.132092 -0.52655846
10.475986 -8.7592831 1.6766785
2.6920831 -2.2517292 -0.43093005
10.520145 -8.8024464 2.1725621
3.3005786 -2.7616696 -0.3765128
3.9722772 -3.3260541 -0.27151898
4.463376 -3.7399099 -0.10164282
1.828065 -1.5361047 -0.63980073
6.6617513 -5.5997872 0.15190575
2.0195034 -1.6981715 -0.60916752
10.296964 -8.6616373 0.70517474
2.2746296 -1.9133812 -0.57776964
10.361817 -8.7192802 1.1847951
2.5418887 -2.1397109 -0.52624559
10.401312 -8.7587175 1.6696101
2.672061 -2.2508814 -0.42898014
10.433465 -8.7920189 2.1609859
3.2985368 -2.7795942 -0.37738436
3.9667504 -3.3450496 -0.27193764
4.4594636 -3.7632053 -0.10185225
1.8167932 -1.5374846 -0.63773018
6.639112 -5.6204233 0.15183595
2.0180247 -1.7089887 -0.6105172
10.204169 -8.6415243 0.70077848
2.2664387 -1.9200406 -0.57738805
10.25228 -8.6884146 1.1757309
2.5328979 -2.1472938 -0.52593273
10.290435 -8.726922 1.656692
2.6702425 -2.2653315 -0.42995507
10.324416 -8.7588387 2.1444039
3.2781799 -2.7820666 -0.37616417
3.9489605 -3.3537045 -0.27151898
4.472867 -3.7999825 -0.10244562
1.8025934 -1.5362985 -0.6346243
6.6021743 -5.6268435 0.15141708
2.0212438 -1.7232573 -0.61321658
10.122274 -8.6330252 0.69721967
2.2671905 -1.9343113 -0.57929617
10.167332 -8.6775856 1.1694556
2.5257633 -2.1556811 -0.52593273
10.20558 -8.7133083 1.6476736
2.6627157 -2.274174 -0.42995507
10.226194 -8.7370825 2.1303248
3.2729924 -2.7973759 -0.37668711
3.9514802 -3.3784623 -0.27246103
4.4109535 -3.773972 -0.10132867
1.8033537 -1.5472995 -0.63669485
6.5627666 -5.6329231 0.15096332
2.0152166 -1.730302 -0.61321658
10.03299 -8.6175537 0.69313747
2.2577846 -1.9392605 -0.57853287
10.068985 -8.6515255 1.1614374
2.5167251 -2.163197 -0.52561986
10.099843 -8.6841679 1.6354867
2.6668007 -2.2938106 -0.431905
10.132744 -8.7186127 2.1171842
3.259167 -2.8043158 -0.37616417
3.9396629 -3.392235 -0.27246103
4.3962374 -3.7880409 -0.10129377
1.8008651 -1.5561111 -0.63773018
6.5203705 -5.6361814 0.15043975
1.9944234 -1.7245796 -0.60871756
9.9303408 -8.5898046 0.68811321
2.2628803 -1.9574051 -0.58158582
9.981473 -8.6370792 1.1548136
2.504678 -2.1680901 -0.52468127
10.010942 -8.6686926 1.625981
2.6437736 -2.2901084 -0.42946759
10.048507 -8.7073593 2.105921
3.2644162 -2.8287232 -0.37790731
3.9232709 -3.4020414 -0.272147
4.3391886 -3.7653561 -0.10028153
1.798337 -1.5649242 -0.63876545
6.5489211 -5.700922 0.15155669
1.9986786 -1.7404895 -0.61186689
9.8415642 -8.5732508 0.68403101
2.250113 -1.9601338 -0.58005941
9.8926821 -8.6208191 1.1480155
2.5045397 -2.18331 -0.52624559
9.9177828 -8.6487865 1.6157439
2.6342673 -2.2980177 -0.42922387
9.9525633 -8.6852341 2.0921547
3.2545223 -2.840101 -0.37790731
3.9249113 -3.4275386 -0.27308905
4.3395705 -3.7923224 -0.10059568
1.7855989 -1.5648258 -0.63617724
6.7455115 -5.9135723 0.15658298
2.0013819 -1.7551649 -0.61456633
9.7214937 -8.5285234 0.67775071
2.2388294 -1.9640919 -0.57891452
9.8086185 -8.6079874 1.1417402
2.49245 -2.1881297 -0.525307
9.8219051 -8.6257172 1.6050195
2.6321952 -2.3124399 -0.43019882
9.845027 -8.652112 2.0758855
3.2445886 -2.851444 -0.37790731
3.9234216 -3.4504511 -0.27382174
4.3743429 -3.8497226 -0.10171262
1.781574 -1.5723275 -0.63669485
6.817771 -6.0191379 0.15874709
1.9908611 -1.7582703 -0.61321658
9.6617298 -8.5359592 0.67565727
2.2407875 -1.9796942 -0.58120424
9.6769943 -8.552453 1.129887
2.4877567 -2.1994336 -0.52593273
9.7456398 -8.6191816 1.5974635
2.6300542 -2.3268754 -0.43117377
9.7600346 -8.6379871 2.0643096
3.2301393 -2.8587914 -0.37738436
3.9173338 -3.4694223 -0.27424043
4.4117603 -3.9100642 -0.10289939
1.7847388 -1.5862368 -0.63980073
6.7967186 -6.0428996 0.15874709
1.9876237 -1.767799 -0.61411637
9.5886011 -8.5311317 0.67262173
2.2338634 -1.9875041 -0.58120424
9.5845747 -8.5305452 1.122566
2.4682612 -2.1975954 -0.52342981
9.5998688 -8.5501661 1.5784519
2.6189516 -2.333401 -0.4306863
9.6723108 -8.6207428 2.0521076
3.2305522 -2.8793283 -0.37860456
3.8858223 -3.4657927 -0.27287969
4.3786902 -3.9081302 -0.10244562
1.7892669 -1.6014758 -0.64342415
6.7487674 -6.0425777 0.1581188
1.9770861 -1.770826 -0.61276674
9.4918261 -8.5045748 0.66791159
2.2327609 -2.0005298 -0.58273071
9.5413857 -8.5519819 1.1209971
2.4605751 -2.206198 -0.52342981
9.5344982 -8.5518131 1.5726022
2.6063578 -2.3385508 -0.42995507
9.5466061 -8.5686874 2.0317712
3.2353089 -2.9038959 -0.38034767
3.8796439 -3.484674 -0.27329838
4.3486614 -3.9086864 -0.10206167
1.7721863 -1.5973645 -0.63928306
6.8122859 -6.1424274 0.16010839
1.9752338 -1.7816321 -0.61411637
9.407217 -8.4881496 0.66403866
2.2228491 -2.005681 -0.58196747
9.4537945 -8.5331717 1.1141989
2.4513929 -2.2134492 -0.52311689
9.481019 -8.5637522 1.5687023
2.5922875 -2.3423114 -0.42898014
9.4580193 -8.548975 2.0192564
3.2428892 -2.9312038 -0.38243937
3.886713 -3.5156126 -0.27465913
4.3142357 -3.905055 -0.10157301
1.7694604 -1.6061379 -0.64031839
6.7611952 -6.1392832 0.15941028
1.9791002 -1.7976881 -0.61726576
9.3361425 -8.4803553 0.66100323
2.2172873 -2.0147483 -0.58234906
9.3620281 -8.5098343 1.1068779
2.4568055 -2.2339537 -0.52593273
9.3835182 -8.5353518 1.5574903
2.5885003 -2.3553538 -0.42971134
9.4018574 -8.5550318 2.0133119
3.2385321 -2.9478703 -0.38313666
3.8773704 -3.5318484 -0.27486849
4.3101311 -3.9274213 -0.10178243
1.7581395 -1.6070908 -0.63824779
6.7378469 -6.1589718 0.15934047
1.9803188 -1.8108163 -0.61951524
9.2372189 -8.4495344 0.65608358
2.2087927 -2.0211506 -0.58196747
9.274951 -8.489996 1.1000798
2.4464698 -2.2394207 -0.525307
9.3053856 -8.5208406 1.5492033
2.5879943 -2.3706291 -0.43093005
9.3209629 -8.5410891 2.0023613
3.2164721 -2.9483864 -0.38174215
3.8877177 -3.5649343 -0.27643853
4.3052359 -3.9505546 -0.10199186
1.758487 -1.6181448 -0.64031839
6.7589746 -6.2217298 0.16035272
1.9696851 -1.8137577 -0.61816555
9.1518488 -8.4273548 0.65200138
2.2136302 -2.0391049 -0.58502042
9.1866732 -8.4653502 1.0929331
2.4386377 -2.247947 -0.525307
9.22013 -8.5021343 1.5399412
2.5753262 -2.3756106 -0.43019882
9.2432222 -8.526413 1.9917238
3.2491403 -2.9982202 -0.38679719
3.8884563 -3.5906777 -0.27738059
4.3405852 -4.0095863 -0.10314372
1.759913 -1.6308388 -0.64290655
6.8160434 -6.3161459 0.16220267
1.9522263 -1.8096809 -0.61456633
7.6373715 -7.0821943 0.54586405
2.2151346 -2.0548306 -0.58731008
9.1074104 -8.4512882 1.0870063
2.4369614 -2.2613959 -0.52655846
9.1191416 -8.4651356 1.5277542
2.5688889 -2.3854878 -0.43044254
9.1685381 -8.5169497 1.982025
3.2620068 -3.0312436 -0.38958618
3.8779902 -3.6049125 -0.27748525
4.3148494 -4.0138178 -0.10286448
1.7573204 -1.6393012 -0.64394182
6.9182248 -6.4558654 0.16516958
1.9544448 -1.8244632 -0.61726576
8.9862309 -8.3915319 0.64436036
2.2054386 -2.0594852 -0.5865469
9.041482 -8.4460812 1.0824744
2.4290531 -2.2698886 -0.52655846
9.0460329 -8.4562483 1.5204421
2.5460472 -2.380882 -0.42800516
9.0738363 -8.4881754 1.9679458
3.2766719 -3.0651829 -0.39254946
3.877048 -3.6293466 -0.27832264
4.3241625 -4.0507283 -0.10342296
1.7501793 -1.6441027 -0.64342415
6.946651 -6.5279036 0.16639124
1.9565834 -1.8392828 -0.61996514
8.9074154 -8.3763294 0.64080149
2.1867948 -2.0564117 -0.58349395
8.943737 -8.4134283 1.0742816
2.4297464 -2.2864764 -0.52843571
8.9788799 -8.4523964 1.5141048
2.5435016 -2.3951988 -0.42898014
8.9837608 -8.4629087 1.9548053
3.2558007 -3.067039 -0.39132929
3.8774359 -3.6551883 -0.27926469
4.3361797 -4.0904975 -0.10405125
1.7346059 -1.6409088 -0.63980073
7.6674757 -7.2558417 0.18426251
1.9586425 -1.8541397 -0.62266457
8.8462172 -8.3771582 0.63849872
2.1881561 -2.0721321 -0.58578366
8.8622437 -8.3952694 1.0680065
2.4188824 -2.2922263 -0.52780992
8.885932 -8.4235954 1.5033803
2.5437675 -2.4122584 -0.43044254
8.9197712 -8.4615879 1.9472965
3.2517638 -3.0858083 -0.39220083
3.8747926 -3.6783264 -0.27999741
4.339272 -4.1221352 -0.1044701
1.7411667 -1.6592499 -0.64445943
7.6942163 -7.3322258 0.18551907
1.9465163 -1.8555869 -0.62086499
7.4755936 -7.1288695 0.54136318
2.1862288 -2.0855584 -0.58731008
8.7766409 -8.3754253 1.0613827
2.4047494 -2.2956207 -0.52655846
8.8076534 -8.407958 1.4950932
2.5453815 -2.4307199 -0.43214872
8.8344727 -8.439456 1.9350946
3.2553766 -3.1109054 -0.39394394
3.864172 -3.6952639 -0.28020674
4.3508668 -4.1621394 -0.1050984
1.7353642 -1.6653177 -0.64445943
7.6961417 -7.3880734 0.18621717
1.9354855 -1.8586593 -0.61951524
8.6693783 -8.3281689 0.63002026
2.1817672 -2.0958974 -0.58807337
8.6941986 -8.3549318 1.0549332
2.405266 -2.3122146 -0.52843571
8.7195444 -8.3851442 1.4853437
2.5350244 -2.4386566 -0.431905
8.7650509 -8.4347963 1.9266472
3.2473691 -3.1250129 -0.39429256
3.8469331 -3.7045736 -0.27989271
4.3485417 -4.1905465 -0.10541254
1.7448218 -1.6861321 -0.65015346
7.6185479 -7.3648591 0.1849606
1.93599 -1.8721775 -0.62176478
7.4731956 -7.2293954 0.54492205
2.1730268 -2.1021354 -0.58769172
8.6392097 -8.3602886 1.0517955
2.4071152 -2.330214 -0.53062576
8.641737 -8.3685789 1.4770566
2.5036838 -2.4253914 -0.42800516
8.6816492 -8.4131021 1.9147581
3.2421644 -3.1418755 -0.39498982
3.83828 -3.7221508 -0.28020674
4.2850952 -4.1583509 -0.10422577
1.7264651 -1.6800869 -0.64549476
8.1000299 -7.8851914 0.19731691
1.9364238 -1.8857217 -0.62401426
7.3676209 -7.1747122 0.53895575
2.1586444 -2.1028583 -0.58578366
8.5443363 -8.3264303 1.0437772
2.4032102 -2.3427393 -0.53156441
8.5840483 -8.3709736 1.4721818
2.5126817 -2.4503117 -0.43093005
8.5858307 -8.3756361 1.8997405
3.2468626 -3.1684804 -0.39690727
3.8324084 -3.7425036 -0.2807301
4.29703 -4.1976905 -0.10485406
1.718124 -1.6830988 -0.64445943
8.3223505 -8.1555405 0.20339034
1.9385092 -1.900318 -0.62671363
7.2867374 -7.1431789 0.53476888
2.162873 -2.1210017 -0.58883661
8.4683199 -8.3072815 1.0378506
2.3897886 -2.3451612 -0.5303129
8.4995794 -8.3437691 1.4624323
2.5031259 -2.4572399 -0.4306863
8.5255919 -8.3722277 1.8925444
3.2420228 -3.1848147 -0.3976045
3.8313713 -3.7663925 -0.28156745
4.3244343 -4.2525783 -0.1058663
1.7221621 -1.6982825 -0.64808291
8.3265791 -8.2139893 0.20415826
1.9238746 -1.8985232 -0.62401426
8.3889036 -8.281249 0.61777371
2.1708224 -2.143713 -0.59303439
8.406702 -8.3017178 1.0336671
2.3791878 -2.3502965 -0.52968717
8.4238548 -8.3244677 1.4541451
2.5015919 -2.4729402 -0.431905
8.4555817 -8.3616552 1.8834713
3.2450502 -3.2101238 -0.3993476
3.8153625 -3.7769339 -0.28135812
4.5795331 -4.5349903 -0.11249821
1.7241492 -1.712752 -0.65118873
7.499258 -7.4522853 0.18454175
1.9155211 -1.9041877 -0.62356436
8.3188391 -8.2725077 0.61484283
2.1643426 -2.1530397 -0.59341598
8.3352556 -8.2917261 1.0286121
2.3663568 -2.3548207 -0.52874857
8.3468618 -8.3090696 1.4461017
2.5023575 -2.4918973 -0.43361115
8.3870916 -8.35495 1.8750238
3.2445533 -3.233247 -0.40074208
3.7944219 -3.7838404 -0.28083476
4.6039367 -4.592701 -0.11351045
1.7110323 -1.7122273 -0.64860052
7.7319331 -7.7400341 0.19096424
1.9112831 -1.9139533 -0.62446415
2.1554267 -2.1591918 -0.59303439
8.2654018 -8.2827301 1.0237314
2.3758461 -2.3816588 -0.53281587
8.2743006 -8.2974377 1.4387896
2.4950457 -2.5020227 -0.43385491
8.299304 -8.3254175 1.8618832
3.2346537 -3.2459645 -0.40091643
3.7882376 -3.8041389 -0.28135812
4.1082101 -4.1268945 -0.10164282
1.7080672 -1.7206339 -0.64963585
1.9076705 -1.9230483 -0.62536401
7.3213263 -7.380343 0.54481739
2.1510198 -2.1691158 -0.59379762
8.1803808 -8.2520809 1.0165845
2.3623738 -2.3839121 -0.53156441
8.2174015 -8.2952166 1.4336711
2.4937201 -2.5173342 -0.43507358
8.2285604 -8.3093805 1.8521842
3.2252738 -3.2580888 -0.40109071
3.7798157 -3.8209395 -0.28167215
4.0368528 -4.0821986 -0.10021172
1.6942132 -1.7180353 -0.64653003
8.0777168 -8.1941586 0.20084229
1.9108578 -1.9390799 -0.62851328
7.292716 -7.403008 0.544608
2.1451924 -2.1776354 -0.59417921
8.0914593 -8.2166996 1.0089148
2.3572268 -2.3945482 -0.53219014
8.132762 -8.2644091 1.4236778
2.4890943 -2.5302689 -0.43580481
8.1621094 -8.300025 1.8437368
3.2102609 -3.2645047 -0.40056777
3.7685239 -3.834878 -0.28177682
4.5578017 -4.6412926 -0.11354536
1.6895572 -1.7253189 -0.64704764
8.0056992 -8.1780062 0.19976024
1.8958997 -1.9373813 -0.62581384
7.250071 -7.4112868 0.54335195
2.1348326 -2.1823037 -0.59341598
8.0195465 -8.200736 1.0035112
2.3350456 -2.3886361 -0.52906144
8.0372686 -8.2245998 1.4119784
2.4927311 -2.551722 -0.43799844
8.0820227 -8.2761755 1.8321607
3.2016299 -3.2785418 -0.40091643
3.7453504 -3.8380032 -0.28104413
4.0431585 -4.1460729 -0.10108434
1.6969928 -1.7450559 -0.65222406
7.9464402 -8.1743565 0.19899234
1.8904835 -1.945385 -0.6262638
7.2297225 -7.4422798 0.54377061
2.1436172 -2.2066405 -0.5979954
7.9936466 -8.2315378 1.0038599
2.3211896 -2.3911028 -0.52780992
7.9808612 -8.2241135 1.4071035
2.4810443 -2.5575581 -0.43751097
7.9898257 -8.2391033 1.8177687
3.1979125 -3.2988372 -0.40196225
3.7152514 -3.8338418 -0.27978805
4.0411816 -4.173089 -0.10139848
1.7013191 -1.762383 -0.6563651
7.8761921 -8.158885 0.19794521
1.8945071 -1.9631906 -0.62986302
7.198154 -7.4617205 0.54335195
2.12325 -2.2017636 -0.59456086
7.9150262 -8.2105761 0.99775898
2.317893 -2.4052842 -0.52906144
7.9383302 -8.237628 1.4046662
2.4789877 -2.5733509 -0.43872967
7.9185405 -8.2228336 1.8080698
3.1697969 -3.2927558 -0.39987054
3.7080979 -3.8546302 -0.28031141
4.5505319 -4.732007 -0.11459251
1.6884725 -1.7613381 -0.65377688
7.8130298 -8.1530457 0.19710748
1.8872989 -1.9701209 -0.62986302
7.8061929 -8.1516066 0.59150106
2.1236987 -2.2176695 -0.59685057
7.8532515 -8.2036133 0.99357545
2.3122144 -2.4162145 -0.52968717
7.8573127 -8.2135935 1.3956479
2.4956067 -2.6096787 -0.44336072
7.8706036 -8.2332382 1.8040025
3.1494477 -3.2957087 -0.39882466
3.6918612 -3.8646617 -0.28010207
4.5262532 -4.7414212 -0.11441798
1.6740152 -1.7591181 -0.65067112
7.7348957 -8.1281195 0.19585089
1.8817534 -1.9781088 -0.63031286
7.763927 -8.1643324 0.59045434
2.1128509 -2.2225926 -0.59608734
7.762742 -8.1687937 0.98590571
2.2910986 -2.4117837 -0.52687138
7.8053517 -8.2165041 1.3915043
2.5548296 -2.6903472 -0.45554763
7.809176 -8.2262774 1.7964935
3.13381 -3.3023465 -0.39830172
3.6872911 -3.8883119 -0.28083476
4.4986696 -4.7455821 -0.11413874
1.6764445 -1.7727902 -0.65377688
7.6666884 -8.1101303 0.19480376
1.8778605 -1.9871708 -0.63121271
7.6929712 -8.1407795 0.58700013
2.1152954 -2.2392094 -0.5987587
7.7110496 -8.165617 0.98259377
2.2753744 -2.4103508 -0.52499413
7.7262902 -8.1874809 1.3822422
2.6044672 -2.7608955 -0.46602839
7.7521172 -8.2177219 1.7892977
3.1234198 -3.3121753 -0.39830172
3.6819067 -3.9071448 -0.28135812
4.4727688 -4.7480474 -0.1138595
1.6702461 -1.7786313 -0.65377688
6.2215858 -6.6253157 0.15864237
1.8632579 -1.9848622 -0.62851328
7.6289735 -8.1297159 0.58427864
2.1101527 -2.2494433 -0.59952188
7.6429763 -8.1503382 0.97753882
2.2727737 -2.4236465 -0.52624559
7.6665139 -8.178298 1.3763925
2.6143007 -2.7897964 -0.46944076
7.6842213 -8.2029238 1.7802243
3.1200104 -3.3317835 -0.3993476
3.6812143 -3.9324551 -0.28230017
4.4466057 -4.7534089 -0.11361516
1.6709276 -1.7912234 -0.6563651
6.1643262 -6.6104302 0.15776975
1.862962 -1.9984814 -0.63076282
7.5433607 -8.0949268 0.57988244
2.091974 -2.2449379 -0.59646893
7.5914617 -8.1493959 0.97440118
2.265646 -2.4330111 -0.52655846
7.59058 -8.1541557 1.3678616
2.6221268 -2.8177967 -0.47260937
7.6205592 -8.1920919 1.7720897
3.1157298 -3.3494058 -0.40021914
3.6946619 -3.9745383 -0.28439364
4.2557807 -4.5813689 -0.10914735
1.6607265 -1.7927939 -0.65481222
6.1194754 -6.6084328 0.15721127
1.8625938 -2.0121224 -0.63301229
7.4933538 -8.0977535 0.57820767
2.0907919 -2.2594314 -0.59837705
7.5088515 -8.1173429 0.96742868
2.2557981 -2.4394543 -0.52624559
7.5364685 -8.1529055 1.3632306
2.6122749 -2.8269322 -0.47260937
7.5423226 -8.1649551 1.7605137
3.0864437 -3.3412354 -0.39795309
3.7119243 -4.0211649 -0.28680107
4.4024653 -4.7725773 -0.11333593
1.6518425 -1.7957361 -0.65377688
6.0368147 -6.5649858 0.15567546
1.8661093 -2.0300896 -0.63661152
7.4245014 -8.0797434 0.57506758
2.0948477 -2.2797263 -0.60181159
7.44947 -8.1097565 0.96341962
2.244597 -2.4444036 -0.52561986
7.4730611 -8.14114 1.3568934
2.6064174 -2.8404217 -0.47334057
7.4964175 -8.172308 1.7564464
3.0814965 -3.3593297 -0.39882466
3.7221575 -4.0605984 -0.28868517
4.4195476 -4.8247795 -0.11420855
1.649473 -1.8057703 -0.65532982
6.0111647 -6.583065 0.15560566
1.8485011 -2.0250769 -0.63301229
7.3693271 -8.0761032 0.57297415
2.0895238 -2.2899256 -0.60257488
7.380836 -8.0915508 0.9581902
2.2293959 -2.4449255 -0.52405554
7.4098287 -8.1290331 1.3505563
2.5924752 -2.8451006 -0.47260937
7.4226179 -8.1487741 1.7458088
3.0992684 -3.4024704 -0.40265954
3.7173715 -4.0839057 -0.28941786
4.4309359 -4.8712425 -0.11494155
1.6496491 -1.8186715 -0.65791804
6.0082974 -6.6262283 0.15612923
1.8374947 -2.0271852 -0.63166261
7.2954946 -8.0514555 0.56941521
2.0775633 -2.2928407 -0.60143
7.3338203 -8.096591 0.95574987
2.2261515 -2.4585502 -0.525307
7.3294539 -8.0974512 1.3410504
2.5798645 -2.8511884 -0.47212186
7.3716011 -8.1497297 1.7404901
3.0927186 -3.4191785 -0.40335676
3.5463986 -3.9235001 -0.27717125
4.416585 -4.889647 -0.11501136
1.6419979 -1.8229834 -0.65740043
6.0038633 -6.6679664 0.15661789
1.8421409 -2.0466228 -0.63571173
7.2406263 -8.0471773 0.56732178
2.0708599 -2.3015382 -0.60181159
7.2575469 -8.0688143 0.94947463
2.2201977 -2.4692435 -0.52593273
7.2799125 -8.0993643 1.3371505
2.5553024 -2.8439341 -0.46944076
7.295588 -8.1225061 1.7292268
3.0807643 -3.4299533 -0.40335676
3.0323958 -3.3784738 -0.23791927
4.3981552 -4.9035459 -0.11497645
1.6330485 -1.8258239 -0.6563651
5.9925475 -6.7022996 0.15693204
1.836284 -2.0544934 -0.63616163
7.1699104 -8.0247431 0.56397235
2.0588894 -2.3043606 -0.60066676
7.2041202 -8.0658655 0.94616276
2.2168272 -2.4828722 -0.52718419
7.2119408 -8.0802965 1.3298384
2.5255358 -2.8306181 -0.46578467
7.2330046 -8.1095943 1.7210922
3.0581632 -3.428791 -0.40196225
3.0724113 -3.4471869 -0.24200147
4.3810124 -4.9188681 -0.11497645
1.621534 -1.8257357 -0.65429455
5.9784098 -6.7336445 0.15717638
1.8342758 -2.066721 -0.63796127
7.1286001 -8.0347815 0.56292558
2.0651655 -2.3276877 -0.60486454
7.1309724 -8.0402832 0.94023609
2.2029049 -2.4846833 -0.52593273
7.1652579 -8.0846233 1.326426
2.5248547 -2.8498173 -0.46749085
7.1653619 -8.0904284 1.711706
3.0395715 -3.4319878 -0.40109071
3.6838157 -4.1623321 -0.29130197
4.3704395 -4.9416208 -0.11515098
1.6125953 -1.828487 -0.65325934
5.9561906 -6.7559719 0.15721127
1.8347811 -2.0818832 -0.64066064
7.0609007 -8.014657 0.55978543
2.0492411 -2.3260438 -0.60257488
7.0844278 -8.0441923 0.93779576
2.188997 -2.4864268 -0.52468127
7.0897808 -8.0559387 1.3176514
2.507024 -2.8496709 -0.46602839
7.113596 -8.0886908 1.7060745
3.0380991 -3.4545455 -0.40248519
3.6745379 -4.1811662 -0.29172066
4.3109379 -4.9087648 -0.11403403
1.6163851 -1.8457316 -0.65740043
5.9589148 -6.8068137 0.15790938
1.8133861 -2.0721436 -0.63571173
7.0092106 -8.0121984 0.55790138
2.0475724 -2.3405709 -0.60448295
7.0103998 -8.0163803 0.93169487
2.1829047 -2.4970272 -0.525307
7.0302677 -8.0447636 1.3118018
2.5035915 -2.8658795 -0.4672471
7.0502353 -8.0732994 1.6976269
3.0443697 -3.4861398 -0.40492558
3.6704259 -4.2060056 -0.29255801
4.3095484 -4.9418688 -0.11445288
1.6150031 -1.8571935 -0.65947098
5.9443016 -6.8381367 0.15815371
1.8074199 -2.0799317 -0.63616163
6.9261885 -7.9732881 0.55350512
2.035527 -2.3432577 -0.60333806
6.9666986 -8.0227499 0.9296031
2.1767652 -2.5076153 -0.52593273
6.9709177 -8.0332718 1.305952
2.5273926 -2.913589 -0.47358429
6.9922466 -8.0635347 1.6904311
3.0439296 -3.5102923 -0.40649435
3.5013833 -4.0406823 -0.28020674
4.3053617 -4.9719987 -0.11480194
1.6097729 -1.8642819 -0.65998858
1.8103334 -2.0980315 -0.63976085
6.8878794 -7.9853172 0.55266774
2.0363116 -2.360755 -0.60600942
6.9009209 -8.0032616 0.92454815
2.1654193 -2.5122058 -0.525307
6.9169183 -8.0274792 1.3010772
2.5133204 -2.9178813 -0.47285309
6.9292555 -8.0474758 1.6819836
3.0420578 -3.532975 -0.40788889
3.6110117 -4.1967063 -0.29015055
4.2931952 -4.993062 -0.11494155
1.5982257 -1.8640233 -0.65791804
5.5736833 -6.5029278 0.1494973
1.8080708 -2.1102574 -0.64156049
6.8223763 -7.9626145 0.54952765
2.0331671 -2.3738132 -0.6075359
6.8457298 -7.9955192 0.92088759
2.1540678 -2.5167477 -0.52468127
6.857882 -8.0153742 1.2952274
2.5121517 -2.937197 -0.47455928
6.8678646 -8.0298777 1.6735362
3.0167596 -3.5284288 -0.40614575
3.6534255 -4.2760997 -0.29475614
4.2727175 -5.0027099 -0.11483683
1.5942138 -1.8725327 -0.65895331
5.5170875 -6.4802647 0.14855488
1.7997998 -2.1147573 -0.64111054
6.7738323 -7.9620404 0.54785281
2.0274124 -2.3838868 -0.60829914
6.7855163 -7.9814172 0.91652977
2.1431513 -2.5208669 -0.52405554
6.8029838 -8.0047932 1.2898653
2.4856894 -2.9258442 -0.47139066
6.820612 -8.0312166 1.668843
3.0108716 -3.5465319 -0.40701729
3.6327634 -4.2805777 -0.29423279
4.2707496 -5.0358949 -0.11525569
1.5917381 -1.8822345 -0.66050619
5.3717904 -6.3544049 0.14523894
1.7848599 -2.1120963 -0.6384111
6.7099094 -7.9429164 0.54492205
2.019496 -2.3905969 -0.60829914
6.7294445 -7.968863 0.91252059
2.135613 -2.5298421 -0.52436841
6.751955 -8.0011845 1.2854779
2.488261 -2.9496765 -0.47382805
6.7619743 -8.018734 1.6613343
3.0055165 -3.5641127 -0.40788889
3.6242347 -4.3008685 -0.29475614
4.2145033 -5.0048833 -0.11420855
1.5901273 -1.8936969 -0.66257679
5.3444338 -6.3669906 0.1450993
1.7887502 -2.1317494 -0.64246029
6.6436357 -7.9203839 0.54178184
2.0124004 -2.3991358 -0.60868073
6.6939068 -7.9831448 0.9114747
2.1255 -2.5357676 -0.52405554
6.683188 -7.9760141 1.2776783
2.4779494 -2.9583442 -0.47382805
6.7123842 -8.0165405 1.6560154
2.7909622 -3.3332214 -0.38034767
3.6117625 -4.3165565 -0.29496548
4.199573 -5.0226326 -0.11427836
1.58227 -1.8977522 -0.66205913
6.585825 -7.9017477 0.17955035
1.7837927 -2.1409748 -0.64336008
6.5673766 -7.8852077 0.53780431
1.998988 -2.4001114 -0.60715425
6.6175575 -7.9482784 0.90485096
2.1242177 -2.5522814 -0.52593273
6.64007 -7.9809823 1.2747533
2.4549143 -2.9517136 -0.47139066
6.6363707 -7.9822011 1.6441264
2.9690979 -3.5712194 -0.40632007
3.60816 -4.3429642 -0.29590753
4.2011752 -5.0603395 -0.11480194
1.5756361 -1.9032637 -0.66205913
5.3585005 -6.4750133 0.14670493
1.778793 -2.1501911 -0.64425987
6.5385394 -7.9065452 0.53769964
1.999356 -2.417665 -0.60982555
6.5389934 -7.909905 0.89787841
2.1102622 -2.5535898 -0.52468127
6.5767713 -7.9612594 1.2679287
2.4635561 -2.9832246 -0.47504675
6.5958915 -7.9900846 1.6409978
2.9654922 -3.5923171 -0.40754023
3.5929782 -4.3555326 -0.29590753
4.1580462 -5.0441132 -0.11410383
1.5726632 -1.9132293 -0.66361207
5.3155537 -6.4689584 0.14614646
1.7712765 -2.1563873 -0.64425987
6.4994931 -7.9154291 0.53675765
1.9921504 -2.426147 -0.6102072
6.4784765 -7.892642 0.89334637
2.0950704 -2.5533047 -0.52311689
6.4859953 -7.9074283 1.2557418
2.4682317 -3.0102262 -0.47797161
6.5391593 -7.9779215 1.6338017
2.9251485 -3.568747 -0.40370542
3.5815492 -4.372683 -0.29622155
4.1416798 -5.0601449 -0.11413874
1.5671967 -1.9202039 -0.66412973
5.2866197 -6.4797258 0.14597192
1.7588118 -2.1565163 -0.64246029
6.4491067 -7.9102039 0.53487349
1.9923534 -2.4437373 -0.6128785
6.4534035 -7.9182959 0.893695
2.0836499 -2.5575397 -0.52249116
6.4395494 -7.9069314 1.2520857
2.4577091 -3.0188236 -0.47797161
6.4626422 -7.9409461 1.6215998
2.9692667 -3.6484747 -0.41154939
3.5624838 -4.3805099 -0.29590753
4.1857891 -5.1506119 -0.11584908
1.564133 -1.9301653 -0.66568261
5.3080235 -6.5525241 0.1471936
1.7635373 -2.1777873 -0.6469593
6.3787303 -7.8798866 0.53131467
1.9801055 -2.4460993 -0.61173368
6.4131908 -7.9252863 0.89195186
2.077194 -2.5678689 -0.52311689
6.4006772 -7.9154692 1.2498921
2.435925 -3.01349 -0.47577798
6.3914309 -7.9096813 1.6106495
2.9189463 -3.6123266 -0.40632007
3.5584643 -4.4069037 -0.29684958
4.0761156 -5.0515852 -0.11330102
1.5549639 -1.9326032 -0.66464734
5.3477831 -6.6489239 0.14893883
1.7620302 -2.1915233 -0.64920878
6.3311663 -7.8771973 0.52963996
1.9703251 -2.4514661 -0.61135209
6.3567867 -7.911902 0.88794273
2.0731659 -2.5812647 -0.52436841
6.3630652 -7.9253807 1.2479422
2.4589388 -3.0637743 -0.4823589
6.3600736 -7.927321 1.6097109
2.8726554 -3.5805342 -0.40161365
3.5430591 -4.4192986 -0.29684958
4.185987 -5.224966 -0.11686131
1.5470029 -1.9365101 -0.66412973
5.162322 -6.4644146 0.14440121
1.7507222 -2.1930916 -0.6478591
6.2737317 -7.8617826 0.5271278
1.9617558 -2.458329 -0.61135209
6.2806745 -7.8732986 0.88114458
2.0616796 -2.5853965 -0.52374262
6.3106141 -7.9164982 1.2430674
2.4667861 -3.0956261 -0.48601499
6.3200555 -7.9340224 1.6065822
2.9184842 -3.6637843 -0.40980628
3.4131756 -4.2878766 -0.28721976
4.1067266 -5.1628628 -0.11515098
1.543835 -1.9464387 -0.66568261
5.229177 -6.5952144 0.14691436
1.7430563 -2.1991894 -0.6478591
6.2264056 -7.8585863 0.52545309
1.9604776 -2.4743943 -0.61364174
6.2407827 -7.8795562 0.87940139
2.0465114 -2.5848339 -0.52217829
6.2509112 -7.8980079 1.2367302
2.4584286 -3.1073313 -0.48650244
6.2714896 -7.9296951 1.6012633
2.7623091 -3.4926741 -0.38958618
3.4724915 -4.3937826 -0.29350007
4.1097488 -5.2038445 -0.11574436
1.5442024 -1.9609224 -0.66878843
4.9401898 -6.2756071 0.13940983
1.7293435 -2.1976032 -0.64560956
6.1830201 -7.8572159 0.52398765
1.9566841 -2.4873948 -0.61516827
6.1886077 -7.8699689 0.87591517
2.0386972 -2.5935149 -0.52249116
6.2012267 -7.8916836 1.232343
2.440752 -3.1061018 -0.48504004
6.2170944 -7.9147196 1.5940675
2.7402568 -3.489759 -0.38819164
3.2783587 -4.178041 -0.27832264
4.1899686 -5.3417439 -0.11850184
1.5424521 -1.9721191 -0.67085898
5.02035 -6.4211335 0.14227203
1.7304467 -2.2140739 -0.64875889
5.2049809 -6.6596742 0.44297159
1.938755 -2.481493 -0.61211532
6.1465335 -7.8700347 0.87364912
2.031301 -2.6018183 -0.52280408
6.1408257 -7.8683867 1.2255182
2.4023476 -3.0781856 -0.47943404
6.1725888 -7.911932 1.5893744
2.7972844 -3.5868077 -0.39795309
3.2669408 -4.19204 -0.27853197
4.1759186 -5.3603415 -0.11860656
1.5287931 -1.9680696 -0.66775316
5.0407286 -6.4914465 0.14345878
1.7230947 -2.2198002 -0.64875889
6.0730715 -7.8265352 0.51917273
1.9257011 -2.4817042 -0.61058879
6.0788832 -7.8368478 0.86772257
2.0226619 -2.6085401 -0.52280408
6.1025381 -7.8730168 1.2230808
2.3769979 -3.0677223 -0.47650915
6.1025953 -7.8787699 1.5784239
2.8671181 -3.7015996 -0.409632
3.4192793 -4.4176526 -0.29276738
4.2367034 -5.4777012 -0.12087537
1.5207341 -1.9718643 -0.66723549
4.9679799 -6.4440703 0.14202769
1.7189046 -2.230432 -0.65010858
6.0225563 -7.817626 0.51718402
1.9230173 -2.4961874 -0.61249691
6.0296078 -7.8296056 0.86458492
2.0123391 -2.6140192 -0.52249116
6.0435424 -7.8533683 1.2167436
2.3868513 -3.1027491 -0.48065275
6.065423 -7.8874974 1.5759209
2.8553941 -3.7131646 -0.40980628
3.4938929 -4.5467539 -0.30051309
4.2419147 -5.524178 -0.12157347
1.5185397 -1.983296 -0.6693061
5.131412 -6.70433 0.14736812
1.7099245 -2.2348709 -0.64965874
5.9746032 -7.8116312 0.51540452
1.9154849 -2.5044444 -0.6128785
5.9865098 -7.830029 0.86231887
1.9984041 -2.6147499 -0.5212397
5.99681 -7.8491783 1.2128438
2.3760064 -3.1110618 -0.48065275
6.0138798 -7.8772187 1.5696636
2.8339524 -3.7120237 -0.40858611
3.476789 -4.5573344 -0.30040842
4.2662506 -5.5962009 -0.12283003
1.5162838 -1.9947364 -0.67137665
4.9990916 -6.5789042 0.14422669
1.6997551 -2.2377224 -0.64875889
5.9255595 -7.8038063 0.51352042
1.9067314 -2.5111151 -0.6128785
5.9326396 -7.8159637 0.85848403
1.995235 -2.6295776 -0.52280408
5.9501796 -7.8447576 1.208944
2.3651323 -3.1193364 -0.48065275
5.962482 -7.8666782 1.5634062
2.7969079 -3.6901367 -0.4050999
3.3475075 -4.4197817 -0.29056925
4.2997894 -5.6812172 -0.12436585
1.518621 -2.0123534 -0.67551774
4.8544645 -6.4350786 0.14070129
1.6989738 -2.2529776 -0.65145832
5.8598108 -7.7734075 0.51017094
1.8979543 -2.5177557 -0.6128785
5.8933311 -7.8207145 0.85674095
1.9801012 -2.6286373 -0.5212397
5.8917136 -7.8242488 1.2026067
2.4043701 -3.1941853 -0.49088979
5.9136066 -7.8590307 1.5577745
2.7594109 -3.6685183 -0.40161365
3.4196823 -4.5479722 -0.29821032
4.2895417 -5.708981 -0.12464508
1.5089192 -2.0148134 -0.67448246
4.8463569 -6.4711914 0.14112017
1.6910989 -2.2588942 -0.65145832
5.8230667 -7.7810225 0.50933355
1.8851855 -2.5199792 -0.61173368
5.8288302 -7.7943935 0.8515116
1.9775499 -2.64537 -0.52311689
5.8501039 -7.8256884 1.199682
2.3896408 -3.1977878 -0.49015856
5.845943 -7.8258176 1.547137
2.7227466 -3.6461997 -0.39812744
3.3062391 -4.4308167 -0.28973189
4.2648053 -5.7175083 -0.12450547
1.4938084 -2.0092161 -0.67085898
4.863162 -6.5434794 0.14230692
1.6886191 -2.2728987 -0.6537078
5.7649016 -7.7596169 0.50661212
1.8834008 -2.5360012 -0.61402339
5.7742724 -7.7778997 0.84750247
1.9659495 -2.6490843 -0.52249116
5.7929955 -7.8088145 1.1938322
2.1260426 -2.8668981 -0.4382422
5.8103538 -7.8350697 1.5449469
2.7562766 -3.7181036 -0.40492558
3.0993469 -4.1839428 -0.27287969
4.3293128 -5.8464613 -0.12698372
1.4902273 -2.0190809 -0.67241186
4.8295612 -6.5434818 0.14195788
1.6810727 -2.278486 -0.6537078
5.7282968 -7.7668338 0.50577474
1.874537 -2.5425601 -0.61402339
5.7340846 -7.7803659 0.84558499
1.9501221 -2.6460481 -0.52061397
5.7411656 -7.7928219 1.18847
2.1129925 -2.869137 -0.43751097
5.7607174 -7.825078 1.5390024
2.7491858 -3.7357256 -0.40579712
3.4144759 -4.6414509 -0.3019785
4.3823118 -5.9614325 -0.12914781
1.4915181 -2.0349185 -0.6760354
4.7605977 -6.4973917 0.1405966
1.6685033 -2.2780514 -0.65190822
5.6775532 -7.7545519 0.5036813
1.8695747 -2.5535145 -0.61516827
5.678834 -7.7591424 0.84122723
1.9420404 -2.6544333 -0.52092683
5.7022104 -7.7967906 1.1860325
2.087734 -2.8556626 -0.43434238
5.7100573 -7.8132429 1.532745
2.7537589 -3.7694316 -0.4084118
3.3852966 -4.6355987 -0.30082709
4.3249335 -5.9266176 -0.12806576
1.4874587 -2.0450585 -0.67758828
4.766118 -6.5527806 0.1414343
1.6616871 -2.2854378 -0.65235811
5.6152225 -7.7258544 0.50054109
1.853279 -2.5508196 -0.6128785
5.648016 -7.77668 0.84087861
1.9334589 -2.6631322 -0.5212397
5.641139 -7.7700634 1.1789641
2.0835829 -2.8709657 -0.43556106
5.6665096 -7.8107409 1.5283649
2.6973054 -3.7193432 -0.40196225
3.087007 -4.2598352 -0.27570584
4.330029 -5.9773054 -0.12883367
1.4791803 -2.0486722 -0.67707068
4.8087764 -6.6626296 0.14342389
1.6601405 -2.3009951 -0.65505755
5.5728488 -7.7269444 0.4992851
1.8455123 -2.5588655 -0.61326015
5.5917063 -7.7559443 0.83652079
1.9264609 -2.67307 -0.52186543
5.6033397 -7.777801 1.1770141
2.0788469 -2.8866377 -0.43677977
5.5951409 -7.772141 1.5167887
2.7099152 -3.7643096 -0.40579712
3.3998585 -4.7261796 -0.30511865
4.2684069 -5.9379292 -0.12764689
1.4697692 -2.0506825 -0.6760354
4.8565331 -6.778532 0.14555307
1.6532332 -2.3083601 -0.65550739
5.5342159 -7.7301106 0.49823835
1.8365688 -2.5652921 -0.61326015
5.5332913 -7.7316704 0.83181441
1.9148198 -2.6765652 -0.5212397
5.5622988 -7.7779374 1.1740894
2.1484141 -3.0053036 -0.45359772
5.5633836 -7.7851958 1.5155373
2.6492643 -3.707284 -0.39865038
3.3995893 -4.7607732 -0.30658406
4.3591595 -6.1090603 -0.13099776
1.461482 -2.0542264 -0.67551774
4.762146 -6.6960382 0.14342389
1.6462945 -2.3157055 -0.65595734
5.4784627 -7.7060976 0.49551687
1.8298776 -2.574888 -0.61402339
