# .PCD v0.7 - Point Cloud Data file format
VERSION 0.7
FIELDS x y z
SIZE 4 4 4
TYPE F F F
COUNT 1 1 1
WIDTH 1498
HEIGHT 1
VIEWPOINT 0 0 0 1 0 0 0
POINTS 1498
DATA ascii
3.2129033 -3.3480446 -0.40597141
16.59054 -17.294411 4.658411
3.9259853 -4.0939798 -0.29726827
19.038996 -19.860619 6.3517184
5.0735579 -5.2943544 -0.12799595
1.6510022 -1.7276751 -0.64031839
6.1909971 -6.4807715 0.15644337
1.8438263 -1.9308028 -0.61636597
8.5725784 -8.9800987 0.65064067
2.0632758 -2.1613593 -0.58082259
13.129156 -13.758093 1.663803
2.339777 -2.4527183 -0.53688318
14.940802 -15.667472 2.6582143
2.6983309 -2.8305573 -0.48016527
14.840431 -15.573098 3.4071431
3.2011974 -3.3592393 -0.40597141
16.459654 -17.278299 4.638567
3.9226897 -4.1192298 -0.29810563
18.878185 -19.830975 6.321125
5.0660744 -5.3236213 -0.12827519
1.6436316 -1.7320262 -0.63980073
6.1807227 -6.5153999 0.15675752
1.8370751 -1.9372272 -0.61636597
8.5769053 -9.0476551 0.6533621
2.0584199 -2.1713977 -0.58158582
13.127648 -13.853009 1.6697297
2.3026724 -2.4307551 -0.5303129
14.931066 -15.767093 2.6662576
2.6966219 -2.8486085 -0.48162767
14.849795 -15.692242 3.4218478
3.1894517 -3.370393 -0.40597141
16.342575 -17.275747 4.622539
3.9233825 -4.1488605 -0.29925704
18.717815 -19.800455 6.2905316
5.0694356 -5.3645272 -0.12883367
1.6442001 -1.7447828 -0.64238888
6.1593122 -6.5383897 0.15679242
1.8182781 -1.9308594 -0.61231679
6.5176282 -6.9211769 0.49823835
2.0642848 -2.1928651 -0.58540201
13.08604 -13.906005 1.6706012
2.3185363 -2.4646766 -0.53594452
14.915376 -15.861055 2.673326
2.6812234 -2.8522189 -0.48065275
14.834208 -15.78026 3.4302955
3.1994977 -3.4047365 -0.4087604
16.026777 -17.060814 4.5500317
3.8965712 -4.1494265 -0.29831499
18.571226 -19.783264 6.2644372
5.0707788 -5.40172 -0.12932234
1.6420597 -1.7547431 -0.64394182
6.1567259 -6.5792203 0.15728109
1.8198527 -1.9454174 -0.61501622
6.2560639 -6.6900549 0.48002547
2.0525954 -2.1957548 -0.58425713
13.055102 -13.970523 1.6728672
2.3116992 -2.4737949 -0.53625745
14.480558 -15.501354 2.6045918
2.6744599 -2.863996 -0.4811402
14.82756 -15.883928 3.4415588
3.1875937 -3.4158843 -0.4087604
15.916535 -17.056452 4.5347667
3.9032259 -4.1842322 -0.29988506
18.428436 -19.762079 6.2383432
5.0682554 -5.4369407 -0.12974119
1.6322858 -1.755934 -0.64238888
6.1010537 -6.565515 0.15644337
1.8157034 -1.9546136 -0.61591601
6.4066329 -6.8991861 0.49342343
2.0412953 -2.1982336 -0.58311236
13.060211 -14.069225 1.679491
2.3111119 -2.4905369 -0.53813463
14.906968 -16.069908 2.6913629
2.6806438 -2.8907809 -0.48406506
14.798883 -15.964563 3.4478159
3.1721852 -3.4220524 -0.40823749
15.790179 -17.039907 4.5156856
3.902169 -4.2124844 -0.30093178
18.285192 -19.746214 6.2131486
5.0546794 -5.4604683 -0.12988082
1.6235259 -1.7587818 -0.64135361
6.1011515 -6.6117544 0.15703675
1.8181185 -1.9709662 -0.61906534
6.3269992 -6.8613081 0.4891319
2.0362713 -2.2082324 -0.58387554
6.3387375 -6.8764443 0.81821811
2.3077588 -2.5044 -0.53938609
2.6678474 -2.8972001 -0.48357758
14.811296 -16.090246 3.4637723
3.1642687 -3.4375021 -0.4087604
15.677427 -17.037132 4.500421
3.8982582 -4.2378392 -0.30176917
18.147566 -19.735327 6.1897535
5.0518279 -5.4957466 -0.13029967
1.6252089 -1.7729827 -0.64445943
6.0145392 -6.5637178 0.15539622
1.8178092 -1.9844856 -0.62131482
6.2448535 -6.8174496 0.48452634
2.0391576 -2.2269101 -0.58692849
13.031627 -14.236483 1.6885552
2.2963357 -2.5095255 -0.53876036
14.29868 -15.631634 2.6011796
2.6630764 -2.9123545 -0.48455253
14.783186 -16.166971 3.4697168
3.1683812 -3.4661736 -0.41085216
15.54105 -17.007694 4.4782872
3.8955646 -4.2646923 -0.30271122
17.952417 -19.660404 6.1465631
5.052453 -5.5331416 -0.13078834
1.6242118 -1.7843597 -0.64653003
5.9294744 -6.514123 0.15375571
1.8072835 -1.9861788 -0.61996514
6.2048903 -6.8214765 0.48327026
2.0366549 -2.2398245 -0.58845496
13.022055 -14.326114 1.6937846
2.2840149 -2.5127413 -0.53782177
14.180017 -15.605506 2.5889926
2.6534038 -2.9211698 -0.48455253
14.802354 -16.301836 3.4875503
3.17501 -3.4978664 -0.41329253
15.4397 -17.009712 4.465312
3.8840854 -4.2805452 -0.30292055
17.834753 -19.662092 6.1285667
5.0572863 -5.5774093 -0.13141662
1.6221728 -1.794035 -0.64808291
5.9067001 -6.5347805 0.15375571
1.8003397 -1.992475 -0.61996514
6.2841253 -6.9572201 0.49133
2.0200043 -2.2363677 -0.58578366
6.4411731 -7.1335912 0.84087861
2.2897894 -2.536829 -0.54126334
14.104179 -15.631328 2.5850928
2.6498389 -2.9377847 -0.48577127
14.771815 -16.38275 3.4938078
3.1607251 -3.5054164 -0.41294393
15.322397 -16.999336 4.4485211
3.8744674 -4.3000126 -0.30333924
17.677324 -19.625765 6.0979738
5.0431385 -5.6009736 -0.13155624
1.6055753 -1.7881866 -0.64394182
5.8985472 -6.5717301 0.15413967
1.7972778 -2.0030987 -0.62131482
6.2571349 -6.9761405 0.49112067
2.0161183 -2.2477899 -0.58692849
6.2353449 -6.9542866 0.81717223
2.2861941 -2.5506902 -0.5425148
14.089271 -15.72482 2.5924048
2.6475146 -2.9558883 -0.48723367
14.765927 -16.491606 3.5060096
3.1497986 -3.5179124 -0.41311821
15.205355 -16.988352 4.4317303
3.867424 -4.3224411 -0.30396727
17.533358 -19.603106 6.0718789
5.0342197 -5.6304684 -0.13183548
1.598038 -1.7923383 -0.64342415
5.8822231 -6.5997424 0.15431418
1.7902747 -2.0093603 -0.62131482
6.2128201 -6.9755664 0.48955056
2.0095656 -2.2562795 -0.58731008
6.4402347 -7.2334433 0.84732807
2.2680833 -2.548326 -0.54032475
14.036932 -15.776871 2.5928924
2.6332226 -2.9606616 -0.48650244
14.689897 -16.522381 3.5016294
3.1401477 -3.5318639 -0.41346684
15.092487 -16.981161 4.4160838
3.8602719 -4.3448734 -0.30459529
17.374237 -19.562197 6.0403862
5.0331221 -5.6689415 -0.13232414
1.5956135 -1.802245 -0.64497709
5.8591499 -6.6202354 0.15431418
1.7871238 -2.0199759 -0.62266457
6.1685853 -6.9747696 0.48798048
2.0029781 -2.2647512 -0.58769172
6.3740363 -7.2096071 0.84192449
2.2591741 -2.5562277 -0.54032475
13.987035 -15.831721 2.5938673
2.649153 -2.9995933 -0.4913772
14.605987 -16.54394 3.4953723
3.1409862 -3.557739 -0.41520998
14.968164 -16.96014 4.3970027
3.879437 -4.3972616 -0.30731675
17.267178 -19.578878 6.0268893
5.0423965 -5.7194757 -0.13309206
1.599517 -1.8194108 -0.64911819
5.8544874 -6.6616769 0.15480286
1.7749172 -2.0203459 -0.62086499
6.1534271 -7.0067644 0.4887132
2.0067198 -2.2850053 -0.59112626
6.3422589 -7.2243261 0.84105289
2.2580552 -2.5730059 -0.54220194
13.97096 -15.925218 2.6011796
2.624269 -2.9924054 -0.48869613
14.501269 -16.541349 3.4841089
3.1495626 -3.5926523 -0.41799891
14.946397 -17.055103 4.4080696
3.8535349 -4.3987584 -0.30647939
17.124266 -19.554003 6.0007944
5.0276694 -5.7430611 -0.13323167
1.594427 -1.8264382 -0.64963585
5.8311977 -6.6820722 0.15480286
1.7729783 -2.032403 -0.62266457
6.153872 -7.0568018 0.49070197
2.0026026 -2.2964354 -0.59227115
6.2541604 -7.1743317 0.83268601
2.2529533 -2.5853403 -0.54314053
13.615386 -15.629622 2.5451195
2.604682 -2.9910684 -0.48698995
14.399343 -16.54121 3.4734712
3.1396194 -3.6066301 -0.41834757
14.93317 -17.16049 4.4218082
3.8538868 -4.4302654 -0.30773544
16.981739 -19.52837 5.9747005
5.0180879 -5.7726493 -0.13351092
1.589307 -1.8334523 -0.65015346
5.8340278 -6.7326112 0.15550095
1.7722526 -2.0459445 -0.62491405
6.11482 -7.0616312 0.48955056
1.9984298 -2.3078642 -0.59341598
6.1860485 -7.1464086 0.82693368
2.2413301 -2.5902011 -0.5425148
13.513991 -15.623006 2.536345
2.6072097 -3.0151577 -0.48942733
14.28726 -16.528606 3.4603307
3.1231019 -3.6130455 -0.41782463
14.903983 -17.248163 4.4309669
3.8423157 -4.4482255 -0.30804947
5.0083599 -5.8022408 -0.13379015
1.5765959 -1.8316683 -0.64756525
5.7909269 -6.7301974 0.15497737
1.7689124 -2.0565503 -0.6262638
6.1565423 -7.1601677 0.49488884
1.9814018 -2.3044052 -0.59074467
2.2361372 -2.602504 -0.5434534
13.415401 -15.618884 2.5280578
2.6018414 -3.0302646 -0.49040228
14.193452 -16.536407 3.4515705
3.1078756 -3.6209021 -0.41747603
14.887152 -17.35074 4.4439416
3.8384681 -4.4752545 -0.30899152
5.0114999 -5.8470173 -0.13441843
1.5739582 -1.8415662 -0.64911819
5.8024707 -6.7914195 0.15591979
1.7617229 -2.0627124 -0.6262638
6.1159496 -7.1633873 0.49363276
1.9771702 -2.3157871 -0.59188956
2.2321675 -2.6163049 -0.54470485
13.296391 -15.590097 2.515871
2.5938239 -3.0423498 -0.49088979
14.095923 -16.539244 3.4418714
3.1042643 -3.6423426 -0.41869619
14.868511 -17.451918 4.4565349
3.8202331 -4.4855852 -0.30878216
5.0066123 -5.8827491 -0.1348373
1.5725204 -1.8529408 -0.65118873
5.7994275 -6.836031 0.15647829
1.7570329 -2.0718222 -0.62716359
6.0599103 -7.1481299 0.49112067
1.9792308 -2.3346548 -0.59494245
6.3375835 -7.4783115 0.85761249
2.2294054 -2.6316166 -0.54626918
13.221365 -15.61218 2.5119712
2.6011446 -3.0725963 -0.49430209
14.007477 -16.552156 3.4343626
3.1031141 -3.6668437 -0.42026496
14.862024 -17.568163 4.4729447
3.8110008 -4.5065184 -0.30930555
5.0079889 -5.9261551 -0.13543068
1.5685327 -1.8613732 -0.65222406
5.7987199 -6.8837619 0.15710656
1.7548113 -2.0839052 -0.62896323
6.1622572 -7.3205075 0.5014832
1.9710693 -2.3415492 -0.59494245
2.2316501 -2.652988 -0.54908502
13.225555 -15.728122 2.5231831
2.5699666 -3.0573444 -0.49040228
13.902596 -16.544994 3.4227865
3.0979862 -3.6868057 -0.42131084
14.810712 -17.63196 4.4759974
3.8068061 -4.5335598 -0.3102476
16.773645 -19.982967 6.0232897
4.9988413 -5.9573865 -0.13574483
1.5607859 -1.8653554 -0.6517064
5.8054466 -6.9407744 0.15794428
1.7500265 -2.0930078 -0.62986302
6.1481934 -7.3557658 0.50242525
1.9578475 -2.3423903 -0.59341598
2.2173107 -2.6546969 -0.54783356
13.213831 -15.826003 2.5314703
2.5948951 -3.108969 -0.49722698
13.806791 -16.54792 3.4134004
3.0927565 -3.7067766 -0.42235672
14.80692 -17.752905 4.4935522
3.7999103 -4.5575585 -0.31098029
16.791126 -20.146185 6.0547829
4.9869747 -5.9855537 -0.13598914
1.551796 -1.8678203 -0.65067112
5.7875719 -6.968688 0.1581188
1.7464441 -2.1036019 -0.63121271
6.0535994 -7.291595 0.49666828
1.9546744 -2.3552527 -0.59494245
6.3912272 -7.7037396 0.87574089
2.2105529 -2.665462 -0.54845929
13.214252 -15.939273 2.5421946
2.5688267 -3.0996666 -0.49430209
13.708983 -16.541903 3.4027629
3.0772564 -3.7144811 -0.42200807
14.767399 -17.831701 4.500421
3.8018093 -4.5923328 -0.3124457
16.862339 -20.375824 6.1060719
4.9785738 -6.015924 -0.13630329
1.5501839 -1.8791865 -0.65274167
5.7631588 -6.9863005 0.1580839
1.7332596 -2.1018643 -0.62896323
5.9556961 -7.2248368 0.49070197
1.957678 -2.3756976 -0.59837705
6.1527452 -7.4691873 0.84663087
2.1954215 -2.6651542 -0.54689491
12.898853 -15.664263 2.491497
2.5673649 -3.1188962 -0.49600828
13.619781 -16.551521 3.3949413
3.069335 -3.731355 -0.42270535
14.739368 -17.918478 4.5099616
3.8068566 -4.6295981 -0.31412044
16.901098 -20.561096 6.1447635
4.9537354 -6.0286303 -0.13619858
1.553739 -1.8962712 -0.65688276
5.766613 -7.0404086 0.1588518
1.7246776 -2.1063938 -0.62851328
5.9418249 -7.2594924 0.491644
1.9572496 -2.3912921 -0.60066676
6.2944837 -7.6930952 0.86963999
2.191108 -2.6789176 -0.54814643
12.758653 -15.604692 2.4749229
2.558975 -3.1309133 -0.49649575
13.516928 -16.543894 3.383678
3.0708106 -3.7584844 -0.42462277
14.717713 -18.019999 4.5225554
3.7805672 -4.6304817 -0.31328306
16.853868 -20.65016 6.1537614
4.918756 -6.0288415 -0.13581464
1.5410144 -1.8941905 -0.65429455
5.7722836 -7.0977292 0.15968952
1.7308366 -2.1290345 -0.63346225
5.9529791 -7.3251381 0.49467951
1.9451764 -2.393539 -0.59952188
6.364325 -7.8340936 0.88306201
2.194196 -2.701884 -0.55127513
12.6966 -15.639886 2.4734604
2.5430267 -3.133661 -0.49552077
13.432961 -16.55876 3.3771076
3.0664585 -3.7800114 -0.42584294
14.709129 -18.138357 4.5393462
3.7694123 -4.6498556 -0.31370175
17.711681 -21.856499 6.4947872
4.8813181 -6.0257745 -0.13536087
1.5343931 -1.8995582 -0.65429455
5.7675734 -7.1427274 0.160248
1.7282903 -2.1411288 -0.63526183
5.9261465 -7.3417306 0.49447018
1.9331108 -2.3957305 -0.59837705
6.2631383 -7.7647653 0.87277764
2.1897111 -2.7156777 -0.55252659
12.589608 -15.619197 2.4632235
2.5445273 -3.1579759 -0.49795815
13.328402 -16.541685 3.364593
3.0494959 -3.7860372 -0.42532
14.688819 -18.243111 4.5527029
3.7706907 -4.6847677 -0.31516716
17.757441 -22.070021 6.5397773
4.8387442 -6.0138841 -0.13473257
1.5229185 -1.8988744 -0.65222406
5.7488594 -7.1680541 0.16038762
1.7223995 -2.1483686 -0.63571173
5.9179692 -7.3841906 0.49593559
1.9333289 -2.4131889 -0.60104835
6.3244233 -7.8969936 0.88515365
2.1806936 -2.722924 -0.55252659
12.483154 -15.592674 2.4524989
2.5414836 -3.1756961 -0.49942058
13.236027 -16.54492 3.3558326
3.0474613 -3.8106632 -0.42688882
14.67116 -18.345385 4.5660591
3.7725945 -4.7190866 -0.31663257
17.805815 -22.281019 6.5847678
4.8052421 -6.0151143 -0.13438353
1.5226315 -1.9114693 -0.65481222
5.7487168 -7.2193642 0.16108571
1.7124623 -2.1513186 -0.63481188
5.8896694 -7.4016771 0.4957262
1.922871 -2.4165142 -0.60028511
6.435873 -8.0910015 0.90450227
2.172405 -2.7320657 -0.55283946
12.431118 -15.639261 2.4529862
2.5402622 -3.1969817 -0.50137055
13.11922 -16.516773 3.3408148
3.0390966 -3.8275189 -0.42758605
14.670514 -18.476437 4.5859036
3.7697573 -4.7494349 -0.31778398
17.849056 -22.495697 6.6297579
4.7767601 -6.0224504 -0.13417409
1.5168134 -1.9185526 -0.65532982
5.7681274 -7.2958589 0.16234228
1.7025259 -2.1542251 -0.63391209
5.8749409 -7.4362955 0.49666828
1.9298195 -2.4435749 -0.60524619
2.175838 -2.757067 -0.55628103
12.418266 -15.735541 2.4612734
2.537694 -3.2167392 -0.50307667
13.011334 -16.498873 3.3279872
3.0331182 -3.8474922 -0.42863193
14.831148 -18.819977 4.6576481
3.7510881 -4.7616506 -0.31767929
17.887049 -22.714066 6.6747479
4.7482853 -6.0296617 -0.13396467
1.5184568 -1.9344729 -0.65895331
5.7586312 -7.3389764 0.16283096
1.6970242 -2.1635175 -0.63481188
5.8390861 -7.4441857 0.49583086
1.915221 -2.4425716 -0.60333806
6.3409376 -8.0898066 0.89927298
2.1625459 -2.7599802 -0.55534244
12.414367 -15.849712 2.471998
2.5124254 -3.2088261 -0.5003956
12.958534 -16.550413 3.3292387
3.0307219 -3.8721764 -0.43020076
14.871824 -19.0077 4.6912303
3.7455184 -4.7888741 -0.31862134
17.927685 -22.929886 6.7197385
4.7099652 -6.0241446 -0.133476
1.50457 -1.930619 -0.65584749
5.7613044 -7.3927326 0.16359887
1.6982239 -2.1798942 -0.63796127
6.1726236 -7.9262295 0.52649975
1.907889 -2.4507914 -0.60371965
2.1655133 -2.7827263 -0.55847108
12.180127 -15.657335 2.4356809
2.5078635 -3.2249744 -0.50161427
12.850975 -16.531603 3.316411
3.0122967 -3.8764393 -0.4295035
14.883399 -19.153025 4.7148905
3.7418697 -4.8170414 -0.31966805
17.971067 -23.143127 6.7647285
4.6692891 -6.015275 -0.13291752
1.5005245 -1.938653 -0.65688276
5.7452536 -7.4254508 0.1638781
1.6977575 -2.1950576 -0.64066064
6.2037358 -8.0209084 0.53141934
1.9057559 -2.4648707 -0.60562783
6.2893815 -8.1375084 0.89979583
2.1533713 -2.7871418 -0.55784535
12.090212 -15.654197 2.4286125
2.5062959 -3.246279 -0.50356412
12.062121 -15.62346 3.1261868
3.0079467 -3.8974483 -0.4307237
12.017455 -15.576845 3.8241942
3.7360096 -4.8443079 -0.32061011
18.009157 -23.360052 6.8097186
4.6444325 -6.0243902 -0.13277791
1.4902169 -1.9392836 -0.65532982
5.7376561 -7.4666605 0.16436677
1.6785979 -2.1852214 -0.63616163
6.2170572 -8.0963745 0.53497815
1.895945 -2.4699504 -0.60524619
6.155416 -8.0218945 0.8846308
2.1393065 -2.7879984 -0.55659389
12.00078 -15.645374 2.4210565
2.5027645 -3.2640247 -0.50502658
11.969057 -15.6153 3.1161747
3.0015945 -3.9174135 -0.43176955
11.93469 -15.576093 3.8142722
3.7272122 -4.8661842 -0.32123813
18.050064 -23.574373 6.8547091
4.6160831 -6.0310383 -0.13256848
1.4919819 -1.9549646 -0.65895331
5.7346029 -7.51685 0.16502996
1.6756868 -2.1972656 -0.63796127
6.2359819 -8.1799717 0.53906041
1.8960754 -2.4871533 -0.60791749
6.0104322 -7.8869638 0.86754823
2.1427293 -2.8127341 -0.56003547
11.911218 -15.64137 2.4139881
2.4973676 -3.2806382 -0.50624532
11.88816 -15.622402 3.1092918
3.0006526 -3.9432008 -0.43351269
11.852906 -15.581718 3.8054948
3.7065763 -4.8743949 -0.32092413
18.085592 -23.792376 6.8996992
4.5950027 -6.0471148 -0.13256848
1.4898154 -1.96632 -0.66102386
5.726439 -7.5607333 0.16555353
1.6703594 -2.2062089 -0.63886106
6.2929692 -8.3147612 0.5464921
1.8873823 -2.4937565 -0.60791749
6.4132171 -8.476717 0.92995173
2.1400476 -2.8296497 -0.56191266
11.83021 -15.648017 2.4086261
2.4859009 -3.2893357 -0.50624532
11.807358 -15.629128 3.1024086
3.0024827 -3.9743173 -0.43577868
11.774783 -15.591664 3.7978625
3.7051828 -4.9080262 -0.32228485
18.119818 -24.010914 6.9446893
4.5666409 -6.0535398 -0.13235906
1.4817812 -1.9699646 -0.66050619
5.7144346 -7.5998549 0.16597238
1.6720151 -2.2244883 -0.64246029
6.2675066 -8.3414688 0.54680616
1.8763071 -2.4971905 -0.60715425
6.144279 -8.1804371 0.89508945
2.1277847 -2.8339431 -0.56128693
11.75049 -15.655874 2.4035072
2.4863172 -3.3138721 -0.50868267
11.707692 -15.610195 3.0905197
2.9766374 -3.9688342 -0.43403557
11.700264 -15.605967 3.7913749
3.7059948 -4.9449029 -0.32385492
4.535893 -6.0566382 -0.13207981
1.4818311 -1.9844124 -0.66361207
5.7070103 -7.6453962 0.16653086
1.6630745 -2.2287493 -0.64201033
6.3004475 -8.4465427 0.55224901
1.8699267 -2.5068719 -0.60791749
6.307436 -8.4589911 0.92315364
2.1249626 -2.8508561 -0.56316411
11.713562 -15.720674 2.4071634
2.4794774 -3.3288984 -0.50965762
11.636615 -15.628787 3.0861394
2.9687147 -3.9871914 -0.43490714
11.607036 -15.594743 3.7787814
3.70421 -4.9786406 -0.32521567
4.5135303 -6.0708303 -0.13204491
1.4748952 -1.9895729 -0.66361207
5.6826692 -7.6684842 0.16660067
1.6564447 -2.2361066 -0.64246029
6.3149023 -8.527873 0.55612195
1.8646696 -2.5181174 -0.60906237
6.1925201 -8.3656569 0.91060323
2.1161735 -2.8598442 -0.56347704
11.708197 -15.828495 2.4174004
2.4678421 -3.3375332 -0.50965762
11.604299 -15.699493 3.0920839
2.9671047 -4.0156717 -0.43682456
11.524529 -15.597267 3.7696226
3.7010484 -5.0108185 -0.32647175
18.288723 -24.769995 7.1084538
4.4923115 -6.0865479 -0.13204491
1.4698825 -1.9980775 -0.66464734
5.6617913 -7.6963277 0.1667752
1.6393931 -2.2293155 -0.63886106
6.1407738 -8.3535376 0.54335195
1.8589153 -2.529681 -0.6102072
6.3599768 -8.6580582 0.93988752
2.0986624 -2.8580279 -0.56159979
11.659923 -15.878869 2.4188631
2.4597013 -3.3509283 -0.51038885
11.624217 -15.841832 3.1121075
2.963675 -4.040463 -0.43839338
11.505593 -15.691648 3.7822161
3.6861999 -5.0291829 -0.32678574
18.35445 -25.050648 7.1696405
4.4734015 -6.1054182 -0.13211471
1.462899 -2.003196 -0.66464734
5.6394396 -7.7251019 0.16694972
1.6415497 -2.2494767 -0.64291012
6.195168 -8.4894695 0.55078363
1.8477598 -2.5329821 -0.60944396
6.2252383 -8.536932 0.92437381
2.0979819 -2.8781066 -0.56410277
11.566572 -15.873365 2.4115508
2.4462342 -3.3583164 -0.51014513
11.559545 -15.869538 3.1096046
2.9518988 -4.0540051 -0.43874201
11.506208 -15.807907 3.8005338
3.6756725 -5.0517092 -0.3274138
18.381523 -25.272158 7.2146311
4.4403005 -6.1048241 -0.13176566
1.4558978 -2.0082903 -0.66464734
5.6419606 -7.7826176 0.16778743
1.6363683 -2.258064 -0.64380997
6.1444073 -8.4819298 0.54889959
1.8331494 -2.531466 -0.6075359
2.1011679 -2.9026494 -0.56754434
11.488269 -15.876256 2.4061885
2.4409013 -3.3744519 -0.5113638
11.464725 -15.855367 3.0989671
2.9459 -4.0755882 -0.43996218
11.439922 -15.826881 3.7959545
3.6717675 -5.0816779 -0.32856518
4.4119401 -6.110559 -0.13155624
1.4435865 -2.0052681 -0.66205913
5.6521368 -7.8542037 0.16890439
1.6353042 -2.2732539 -0.64650935
6.0497651 -8.4098425 0.54293329
1.8247447 -2.5375311 -0.6075359
6.169311 -8.5823431 0.92472243
2.091023 -2.9099662 -0.56754434
11.414253 -15.890464 2.4022889
2.4360542 -3.3926263 -0.51282626
11.391344 -15.864415 3.0933354
2.9300447 -4.0820975 -0.43961355
11.354847 -15.825246 3.7860322
3.6714678 -5.1188083 -0.33013523
4.3893218 -6.1219058 -0.13148643
1.4421941 -2.0181537 -0.66464734
5.6051326 -7.8436174 0.1682761
1.6232259 -2.2723215 -0.64470977
6.1178679 -8.567441 0.55172575
1.8250008 -2.5566685 -0.61058879
11.352815 -15.910184 1.7099956
2.076772 -2.9104521 -0.56629282
11.326912 -15.879745 2.3949764
2.4443824 -3.4281633 -0.5169698
11.310674 -15.868694 3.0864525
2.9273388 -4.1085262 -0.44135666
11.277244 -15.827636 3.7776365
3.6521561 -5.1277018 -0.32992589
4.3679261 -6.1371903 -0.13148643
1.4399656 -2.0292273 -0.66671789
5.5869746 -7.8761835 0.16855533
1.6164112 -2.2795632 -0.64515966
6.1306591 -8.6490335 0.55559856
1.8274157 -2.5790424 -0.61440504
11.278107 -15.916858 1.7066838
2.0711672 -2.9241319 -0.56754434
11.243882 -15.880301 2.3891268
2.4174922 -3.4156106 -0.51380116
11.230112 -15.872602 3.0795693
2.9267855 -4.1382399 -0.44344842
11.195356 -15.835196 3.7696226
3.6402533 -5.1508398 -0.33055395
4.3464766 -6.1523995 -0.13148643
1.4369674 -2.0408094 -0.66878843
5.6018062 -7.9587479 0.16988172
1.6147735 -2.2950351 -0.6478591
6.0449147 -8.5946636 0.55067897
1.8202091 -2.5889349 -0.61516827
11.192189 -15.918967 1.7025002
2.0763378 -2.9543295 -0.57192445
11.159354 -15.884048 2.3835208
2.4060984 -3.4260731 -0.51404494
11.136676 -15.863536 3.0698702
2.9207542 -4.1619864 -0.44484288
11.112439 -15.840766 3.7612274
3.6408446 -5.1919465 -0.33233336
4.3170109 -6.158464 -0.13127699
1.4272649 -2.0428953 -0.66775316
5.5989337 -8.0169334 0.17068455
1.6108133 -2.3073297 -0.64965874
6.0297399 -8.637002 0.55203968
1.8010489 -2.5807831 -0.61173368
11.108691 -15.923934 1.6986655
2.057586 -2.9505777 -0.56973439
11.074953 -15.887389 2.3779149
2.4032059 -3.4474788 -0.51599485
11.056388 -15.866658 3.0629873
2.9062083 -4.1721559 -0.44484288
11.034638 -15.847235 3.7535946
3.6352499 -5.2226553 -0.33348474
4.2932024 -6.1702127 -0.13120718
1.4171789 -2.042855 -0.66620022
5.5677595 -8.0288839 0.17054491
1.6064833 -2.3174632 -0.65100837
6.0158567 -8.6782885 0.55340046
1.8025448 -2.6012647 -0.61516827
11.027462 -15.919737 1.6943076
2.0534129 -2.9655049 -0.57129872
11.004133 -15.897912 2.3740151
2.4007988 -3.4684868 -0.51794475
10.985727 -15.877244 3.0579813
2.894624 -4.1850481 -0.44519153
10.954114 -15.843369 3.7440546
3.641758 -5.2691851 -0.33568287
4.2681708 -6.177835 -0.13106757
1.4213557 -2.0634527 -0.67137665
5.5637856 -8.0802422 0.17124301
1.5965798 -2.3195672 -0.65010858
7.9440975 -11.545778 0.73448288
1.7961344 -2.6104624 -0.61593145
10.950897 -15.921746 1.690647
2.0368531 -2.9625313 -0.56942153
10.923242 -15.893414 2.3679214
2.3987935 -3.4915712 -0.52013838
10.893334 -15.86176 3.0476565
2.8935294 -4.2148371 -0.44728327
10.874846 -15.840761 3.7348955
3.6208746 -5.2762923 -0.33536884
4.2488427 -6.1959939 -0.13113739
1.4116033 -2.0654585 -0.67034137
5.5445728 -8.1128225 0.17152224
1.5873742 -2.3235173 -0.64965874
7.9150114 -11.589932 0.7355296
1.7898753 -2.6218925 -0.61707634
10.872254 -15.932155 1.6875095
2.0337734 -2.9813998 -0.57161164
10.835258 -15.883892 2.3608532
2.3776443 -3.4868028 -0.51818854
10.830112 -15.888261 3.0454664
2.8821645 -4.2298512 -0.44780618
10.789083 -15.839948 3.7253549
3.6037595 -5.29283 -0.33557817
4.2294388 -6.2140937 -0.13120718
1.4173985 -2.0895584 -0.67655301
5.5103116 -8.1264696 0.17138264
1.5788474 -2.3293197 -0.64965874
7.8913159 -11.642288 0.73709965
1.779611 -2.6264989 -0.61669469
10.796461 -15.940313 1.6843718
2.0288913 -2.9966595 -0.57317597
10.756939 -15.893907 2.3564658
2.3781965 -3.5152237 -0.52111334
10.740273 -15.875248 3.0357676
2.8830085 -4.2629919 -0.45024657
10.715036 -15.849865 3.7188678
3.6076283 -5.3384733 -0.33767161
11.073212 -16.392014 4.5669565
4.1987667 -6.2155628 -0.13092795
1.4036225 -2.0848784 -0.67344719
5.5324707 -8.2176857 0.17291845
1.5754665 -2.3410094 -0.65145832
7.8762693 -11.707879 0.73950714
1.7649542 -2.6245494 -0.61478662
10.70963 -15.931605 1.679491
2.0244527 -3.0115681 -0.57474029
10.677602 -15.889946 2.350616
2.3643126 -3.5197954 -0.52062589
10.666073 -15.884766 3.0304489
2.8769937 -4.2862635 -0.45164105
10.639441 -15.851076 3.7108538
3.5943565 -5.3570423 -0.33809033
11.030734 -16.446447 4.5719056
4.1725903 -6.2235384 -0.13078834
1.3924069 -2.083097 -0.67137665
5.5181947 -8.2585611 0.17337219
1.5694499 -2.3497355 -0.65235811
7.8608613 -11.773504 0.74191457
1.7704132 -2.6516137 -0.61974764
10.623561 -15.917316 1.6742618
2.0139284 -3.0186164 -0.57474029
10.604447 -15.900697 2.3467162
2.35972 -3.5395887 -0.52233207
10.582077 -15.879159 3.0223143
2.8528194 -4.280859 -0.45007223
10.55901 -15.850538 3.7020762
3.5900261 -5.3911672 -0.33945104
10.974337 -16.486473 4.5723553
4.155272 -6.2447243 -0.13092795
1.3872629 -2.0911644 -0.67241186
5.4827032 -8.2677746 0.17316279
1.5666219 -2.3633208 -0.65460759
7.8340588 -11.822515 0.74327534
1.7611467 -2.6577771 -0.61974764
10.54923 -15.926065 1.6712985
2.0077412 -3.0322161 -0.57599175
10.522583 -15.897889 2.3408666
2.3593991 -3.5660148 -0.52501315
10.494983 -15.868221 3.0132411
2.8521476 -4.3123946 -0.45233828
10.478713 -15.849632 3.6932991
3.5832989 -5.4219947 -0.34060243
10.93176 -16.547443 4.5786538
4.1455703 -6.2775459 -0.13131191
1.3895159 -2.1105161 -0.67707068
5.467001 -8.3069067 0.17358163
1.5519366 -2.3590069 -0.65190822
7.8037171 -11.866477 0.74432206
1.7626458 -2.6803119 -0.62356383
10.48044 -15.942814 1.6692067
2.0014839 -3.0458093 -0.57724321
10.439779 -15.893044 2.3347731
2.3447578 -3.5709105 -0.5245257
10.427606 -15.886594 3.0097995
2.843637 -4.3323183 -0.45338416
10.401783 -15.853285 3.6856666
3.5698276 -5.4428196 -0.34112579
10.835466 -16.526833 4.5624576
4.14117 -6.3187389 -0.13187039
1.3853103 -2.1202052 -0.67862362
5.4631219 -8.3644466 0.17438444
1.5468886 -2.3693051 -0.65325791
7.7829862 -11.925424 0.74631077
1.7522058 -2.6848047 -0.62318224
10.402952 -15.945927 1.6657206
1.991919 -3.0544319 -0.57755613
10.367977 -15.904443 2.3311169
2.3333623 -3.5807366 -0.52476943
10.337584 -15.869928 2.9997876
2.8426337 -4.3639202 -0.45565021
10.328171 -15.861528 3.6791794
3.5617025 -5.4719868 -0.3421725
10.756456 -16.531887 4.5534596
4.114727 -6.3264508 -0.13173077
1.374748 -2.1201651 -0.67707068
5.4697838 -8.4388409 0.1755363
1.5428476 -2.3812323 -0.65505755
7.7641125 -11.987723 0.74850893
1.7374871 -2.6826653 -0.62127411
10.320157 -15.940329 1.6613626
1.9844646 -3.0663416 -0.57849473
10.289754 -15.905539 2.3259985
2.3305507 -3.603862 -0.52696311
10.259605 -15.871079 2.9932175
2.8403635 -4.3938956 -0.45774195
10.25143 -15.864504 3.6715469
3.5588353 -5.5095515 -0.34374261
10.688112 -16.552961 4.5489602
4.0904498 -6.3374147 -0.13166095
1.3631574 -2.1184523 -0.67500007
5.4359651 -8.4511547 0.17539668
1.5387417 -2.3931599 -0.65685713
7.7470579 -12.053394 0.75091636
1.7323585 -2.6953201 -0.62280059
10.237529 -15.934351 1.657005
1.9716141 -3.0699255 -0.577869
10.213793 -15.909618 2.3213673
2.3243895 -3.6219993 -0.52842557
10.181744 -15.871879 2.9866471
2.8303874 -4.412168 -0.45861349
10.173735 -15.865487 3.663533
3.5579045 -5.5505257 -0.34552202
10.615547 -16.567198 4.5426617
4.0769315 -6.3651266 -0.1319402
1.3567939 -2.1248262 -0.67551774
5.4257994 -8.5004187 0.17602497
1.5293305 -2.3968735 -0.65640724
7.7263818 -12.109325 0.75280046
1.7292739 -2.711282 -0.6250903
10.161495 -15.938069 1.6536931
1.9630095 -3.0801208 -0.57849473
10.135798 -15.910017 2.3162489
2.3234613 -3.648509 -0.53110665
10.114199 -15.88223 2.9822671
2.8171086 -4.4253826 -0.45896214
10.092995 -15.861151 3.6543739
3.5417237 -5.5679669 -0.34583604
10.538831 -16.574551 4.5345635
4.0643854 -6.3921094 -0.13221943
1.3545386 -2.1377087 -0.67810595
5.4136353 -8.5437031 0.17654854
1.5172027 -2.3953469 -0.65460759
7.7032976 -12.166597 0.75468457
1.7260988 -2.7272553 -0.62738001
10.08982 -15.948188 1.6510783
1.9580653 -3.0949602 -0.58005905
10.057519 -15.903275 2.3103991
2.3028641 -3.6427701 -0.52915668
10.049202 -15.902408 2.9794512
2.8069644 -4.4436111 -0.45983368
10.025665 -15.871294 3.6490314
3.5317712 -5.5931916 -0.34667343
10.47341 -16.592928 4.5300646
4.042048 -6.4062581 -0.13221943
1.353614 -2.1520002 -0.68121177
5.4125175 -8.6082554 0.17749096
1.5067581 -2.3973284 -0.6537078
7.6820393 -12.222513 0.75656861
1.7149563 -2.7296398 -0.62661678
10.016744 -15.949499 1.6477664
1.9525011 -3.1101413 -0.58162344
9.9776745 -15.899611 2.3047931
2.293299 -3.6558316 -0.52988791
9.967021 -15.888792 2.970691
2.798564 -4.4630232 -0.46087953
9.9462204 -15.867934 3.6402543
3.5175276 -5.6139479 -0.34719676
10.38853 -16.586447 4.5183673
4.0218439 -6.4213223 -0.13225435
1.3481394 -2.1599896 -0.68224704
5.3892369 -8.6346378 0.1776655
1.5070524 -2.4155385 -0.65730703
7.6668081 -12.293315 0.7592901
1.7074952 -2.7389414 -0.62738001
9.9304504 -15.935333 1.6427114
1.9494898 -3.1283345 -0.58381349
9.9185982 -15.922503 2.3033309
2.2906067 -3.6785822 -0.5320816
9.8812246 -15.874851 2.9616177
2.7756 -4.4609232 -0.45965937
9.874877 -15.870826 3.6333852
3.512605 -5.6476288 -0.3485575
10.309805 -16.582741 4.5080194
4.0099602 -6.4523058 -0.13260339
1.3371631 -2.1599886 -0.6806941
5.3518338 -8.6484671 0.17752589
1.502892 -2.4295938 -0.65955657
7.6511188 -12.368894 0.76222098
1.6933146 -2.738502 -0.62585354
9.8499813 -15.936031 1.639051
1.9405789 -3.1408381 -0.58475208
9.836525 -15.926692 2.298456
2.2868936 -3.7042415 -0.53451896
9.8115606 -15.892471 2.9581761
2.7613239 -4.4744573 -0.46000803
9.7922182 -15.873537 3.625371
3.5055702 -5.6848755 -0.35002291
10.233786 -16.602299 4.5026207
4.0051713 -6.4976006 -0.13323167
1.329615 -2.1646433 -0.6806941
5.3273101 -8.6729813 0.1776655
1.4978858 -2.4395463 -0.66090626
7.6287913 -12.429569 0.76431441
1.6981188 -2.7678237 -0.6311962
9.7786694 -15.94484 1.6364362
1.9260219 -3.1405203 -0.58350062
9.7649822 -15.92876 2.2940688
2.2870431 -3.7321157 -0.53744388
9.7353878 -15.892933 2.9519186
2.7550523 -4.499362 -0.46157682
9.7159452 -15.867414 3.6165938
3.5012968 -5.7203178 -0.35148832
10.162403 -16.609549 4.4954224
3.9866388 -6.5183654 -0.13337129
1.3254466 -2.1739886 -0.68224704
5.3094921 -8.7120152 0.17808436
1.4883472 -2.4430959 -0.66045636
7.6061335 -12.490241 0.76640785
1.6960789 -2.7851777 -0.63386756
9.708128 -15.948249 1.6334729
1.9191549 -3.1539745 -0.58475208
9.6773415 -15.910173 2.2865129
2.2781272 -3.7468607 -0.53841883
9.664463 -15.901499 2.9472256
2.7514997 -4.5272012 -0.46349424
9.6482677 -15.881095 3.6120143
3.4771609 -5.7256761 -0.35106963
10.090204 -16.621597 4.4891238
3.9223657 -6.4638591 -0.1319751
1.3238493 -2.18852 -0.68535286
5.2873259 -8.7441854 0.17836359
1.4767861 -2.4432728 -0.65910661
1.6812702 -2.7826791 -0.63195944
9.6328278 -15.949635 1.6301609
1.9163016 -3.1741829 -0.58725506
4.4841981 -7.4306083 1.0656257
2.2568314 -3.7411921 -0.53646892
9.5823746 -15.891154 2.939091
2.7459681 -4.5538402 -0.46523735
9.5725021 -15.88105 3.6043823
3.4664304 -5.7531753 -0.35201168
10.012013 -16.623331 4.4801254
3.9678528 -6.5905805 -0.13427882
1.3122252 -2.186502 -0.68328232
5.2650013 -8.7763062 0.17864282
1.4772686 -2.4634545 -0.66315573
6.9077625 -11.523764 0.70412803
1.667509 -2.7817953 -0.63043296
9.5607109 -15.955817 1.627372
1.9133301 -3.1944101 -0.58975804
4.4347792 -7.4070435 1.0600196
2.2549722 -3.7677841 -0.53915
9.5167065 -15.907555 2.9359624
2.7351704 -4.5719461 -0.46610889
9.4988718 -15.884038 3.5975127
3.4668224 -5.7995267 -0.35410511
9.9319353 -16.621378 4.4702277
3.9458487 -6.6061082 -0.13431372
1.3006316 -2.1844296 -0.68121177
5.2363801 -8.798069 0.17871265
1.4726459 -2.4752951 -0.66495538
7.5371952 -12.67392 0.77279282
1.6597954 -2.7909737 -0.6311962
9.4795046 -15.946278 1.6230143
1.8951042 -3.1891823 -0.58756793
4.4220767 -7.4446654 1.0631882
2.2509279 -3.7909942 -0.54134369
9.4419651 -15.908402 2.9300179
2.7273297 -4.5951729 -0.4675034
9.4213295 -15.879954 3.5891175
3.4608197 -5.8356428 -0.35557052
9.857954 -16.629124 4.4630289
3.9360178 -6.6422062 -0.13476749
1.2969286 -2.1956098 -0.68328232
5.2300382 -8.8576193 0.17955035
1.4649873 -2.4820986 -0.66540527
7.5091472 -12.727674 0.77446753
1.6600192 -2.8136594 -0.63501233
9.4096146 -15.955245 1.6205739
1.88396 -3.1957779 -0.58756793
4.43436 -7.5250454 1.0724503
2.243726 -3.8090906 -0.54280609
9.3633232 -15.902113 2.9228218
2.7163272 -4.6132493 -0.46837494
9.3459234 -15.878903 3.581485
3.4475186 -5.8597379 -0.35630322
9.7919474 -16.649994 4.4594302
3.9280086 -6.6817627 -0.13529105
1.2951171 -2.210124 -0.68638813
5.2091951 -8.8930759 0.17989941
1.4504062 -2.4771073 -0.66270584
6.4396553 -11.002509 0.66812086
1.6511791 -2.8211315 -0.63539398
9.3417883 -15.967358 1.6184822
1.8767822 -3.2091556 -0.58881938
9.3080311 -15.922405 2.2645762
2.2204006 -3.7997603 -0.54036868
9.293808 -15.91082 2.9184415
2.7062368 -4.6330252 -0.46942082
9.2746019 -15.884303 3.5753791
3.4320769 -5.8803611 -0.35682657
9.7160902 -16.653772 4.4513316
3.9086905 -6.702343 -0.13543068
1.2903069 -2.2196419 -0.68794107
5.2896399 -9.1031227 0.18377385
1.4456657 -2.4888957 -0.66450548
6.3831596 -10.99383 0.66623676
1.6383643 -2.8217843 -0.63424915
6.378684 -10.990539 1.1117586
1.8873767 -3.2532773 -0.59570253
9.2334738 -15.922174 2.2599452
2.2170789 -3.824662 -0.54280609
9.2154331 -15.903853 2.9112456
2.7060304 -4.6700263 -0.47220981
9.2053223 -15.892797 3.5700364
3.42554 -5.9165044 -0.35829198
9.6500893 -16.674095 4.4477324
3.8972883 -6.7367167 -0.13584954
1.2796559 -2.2191119 -0.68638813
5.3037691 -9.2012262 0.18537946
1.4408605 -2.5006807 -0.66630507
6.3347769 -10.998738 0.6651901
1.6324239 -2.8342915 -0.63577563
6.3273578 -10.990292 1.1094925
1.8700973 -3.249573 -0.59382528
9.1659594 -15.933658 2.2570205
2.2037153 -3.8323774 -0.54280609
9.1421452 -15.905098 2.9056141
2.6907058 -4.6811705 -0.4723841
9.1390314 -15.90611 3.5658388
3.4227712 -5.9596004 -0.36017609
9.5685406 -16.667118 4.4369349
3.8737488 -6.7502804 -0.13584954
1.271902 -2.2235651 -0.68638813
5.2865071 -9.2457237 0.18590303
1.4408257 -2.5209222 -0.67035419
6.2863755 -10.998876 0.66393399
1.625442 -2.8450861 -0.63692045
6.2741346 -10.986359 1.1068779
1.8567842 -3.2526503 -0.59319955
4.2737675 -7.4896731 1.0588009
2.2008326 -3.8569055 -0.54524344
9.0717335 -15.90444 2.8999825
2.6792834 -4.6991887 -0.47325566
9.0562325 -15.890153 3.5551531
3.3999705 -5.9680405 -0.35996673
9.5151491 -16.702143 4.4378347
3.8553004 -6.7700391 -0.13598914
1.2683359 -2.2344906 -0.68845868
5.2637119 -9.2771168 0.18618228
1.42669 -2.5155153 -0.66765475
6.2419858 -11.005763 0.66309667
1.6285858 -2.872663 -0.64188147
1.845014 -3.257071 -0.59288669
4.2645564 -7.5314426 1.0627007
2.1938989 -3.874547 -0.5467059
9.0062933 -15.912088 2.8959153
2.6685905 -4.7167177 -0.4741272
8.9851274 -15.887629 3.5479028
3.362469 -5.9479866 -0.35808265
9.4520388 -16.720036 4.4342356
3.8426676 -6.8001962 -0.1363382
1.2694517 -2.2538335 -0.69311744
5.2505789 -9.3258867 0.18681055
1.4240749 -2.5304224 -0.67035419
6.1859035 -10.996152 0.66121256
1.6152003 -2.8712034 -0.64035505
4.1572003 -7.3929191 0.74204391
1.8419462 -3.2769473 -0.59538966
4.2191386 -7.5091996 1.0575823
2.179389 -3.8804512 -0.54646218
8.9371567 -15.919314 2.891535
2.670491 -4.7568135 -0.47726485
8.9189425 -15.893366 3.5425599
3.3319776 -5.9399428 -0.35693124
3.8247728 -6.8240347 -0.13654763
1.2653453 -2.2649972 -0.69518799
5.2374921 -9.3790751 0.18750866
1.416183 -2.5370796 -0.67080408
6.1270461 -10.981052 0.65901446
1.6051681 -2.8768241 -0.64035505
6.1208706 -10.974485 1.0993825
1.8324203 -3.2868073 -0.59601539
8.8776627 -15.930376 2.2392275
2.1590686 -3.8758957 -0.544756
8.8632736 -15.917623 2.8855906
2.6499932 -4.7591438 -0.4765676
8.8519535 -15.903818 3.5379808
3.3083098 -5.9463019 -0.35661724
3.9496024 -7.1018677 1.8760918
3.8077304 -6.8495789 -0.13679196
1.2508774 -2.2575712 -0.6915645
5.2202229 -9.4252901 0.18806714
1.4073182 -2.5420074 -0.67080408
6.1099524 -11.040817 0.66131723
1.5970174 -2.8858454 -0.64111823
4.1257396 -7.4583735 0.74570453
1.8304948 -3.3104708 -0.59914404
4.1848564 -7.5714817 1.0622133
2.1637654 -3.9164221 -0.54938704
8.7914228 -15.919066 2.8802717
2.6458867 -4.7910385 -0.47883365
8.7821512 -15.908838 3.5322564
3.2798142 -5.9438243 -0.35577986
3.7857294 -6.8663301 -0.13686177
1.2401983 -2.2568448 -0.69001162
5.2065473 -9.478508 0.18876524
1.4050018 -2.5588617 -0.67395335
6.1088543 -11.130362 0.66539943
1.5822115 -2.882797 -0.63921016
6.0373964 -11.004721 1.0981623
1.8151286 -3.3099122 -0.59789258
4.1288214 -7.5320816 1.0546573
2.1538966 -3.9309142 -0.55036199
8.7234659 -15.927135 2.8762045
2.6387174 -4.8177195 -0.48057678
8.7077093 -15.904956 3.5246239
3.25617 -5.9499803 -0.35546586
3.9074082 -7.1429448 1.879691
3.771332 -6.897049 -0.13721082
1.2369351 -2.2696416 -0.69259977
5.1820383 -9.5124283 0.18907937
1.3969933 -2.5654621 -0.67440331
6.1043391 -11.21477 0.66916758
1.5824634 -2.9072702 -0.643408
6.0303702 -11.083482 1.1039146
1.8139452 -3.3353167 -0.60133415
4.0930243 -7.5290074 1.05222
2.1439531 -3.9453857 -0.55133694
8.6555586 -15.934923 2.8721371
2.620091 -4.8256073 -0.48040244
3.8155215 -7.0273166 1.5543302
3.224901 -5.9420009 -0.35431448
3.8815215 -7.1548281 1.8792411
3.7653456 -6.9435706 -0.13787402
1.2304446 -2.2775595 -0.69363505
5.1697125 -9.5691652 0.18984728
1.3852516 -2.5651786 -0.67305356
6.2473087 -11.57346 0.68926466
1.5755261 -2.9199619 -0.64493442
6.0256472 -11.172148 1.1105385
1.7951469 -3.3297713 -0.59914404
4.079906 -7.5677114 1.0556324
2.1367602 -3.9650784 -0.55304313
8.5839586 -15.935474 2.8668182
2.6126764 -4.8522658 -0.48214555
3.8009043 -7.0619984 1.5589095
3.1974232 -5.9432282 -0.35368642
3.8598864 -7.177588 1.8814907
3.746767 -6.9672384 -0.13808344
1.2279606 -2.2920578 -0.69674093
5.1544294 -9.6250687 0.19058028
1.3785995 -2.575393 -0.67440331
6.2313786 -11.640979 0.69198608
1.5616189 -2.9185195 -0.643408
6.0157413 -11.247576 1.1159421
1.7918949 -3.3516955 -0.60195988
4.0661755 -7.6088758 1.0592884
2.124084 -3.9763849 -0.55353063
8.5115271 -15.933978 2.8611867
2.6088612 -4.885962 -0.48458594
8.4953632 -15.917089 3.5070696
3.1691375 -5.9402552 -0.35284904
3.815552 -7.1549087 1.8720428
3.7243061 -6.9838042 -0.13815325
1.2217649 -2.2997422 -0.69777614
5.1374941 -9.6703634 0.19113876
1.3755355 -2.5902772 -0.67710274
6.2206721 -11.71911 0.69533557
1.5551026 -2.9308898 -0.64493442
6.2284956 -11.743749 1.1630062
1.7863235 -3.3680902 -0.60383707
4.0734639 -7.6837034 1.0678192
2.1164629 -3.9939308 -0.55499303
8.4318142 -15.918207 2.8530521
2.6020451 -4.9144077 -0.48650333
4.2304535 -7.9899359 1.7573509
3.1503556 -5.952497 -0.35295373
4.0323811 -7.6222739 1.990817
3.7073843 -7.0109038 -0.13843249
4.1238933 -7.801846 2.3645709
1.2069267 -2.2901087 -0.69363505
5.1186199 -9.7165451 0.19169722
1.3692094 -2.6002355 -0.67845237
6.2087622 -11.790925 0.69837105
1.5517759 -2.9481916 -0.64760572
8.4094687 -15.983773 1.5801336
1.7773145 -3.37955 -0.60477573
3.9385483 -7.4922953 1.0393019
2.1062019 -4.0083237 -0.55596799
8.3670359 -15.923347 2.848985
2.5875869 -4.9265375 -0.48685199
3.130486 -5.9652262 -0.3530584
3.836467 -7.3135939 1.9066854
3.691546 -7.0373263 -0.13871174
3.9114006 -7.4596071 2.2569022
1.2060831 -2.3080051 -0.69777614
5.0919271 -9.7440996 0.19190666
1.3596768 -2.6030345 -0.67800254
6.2239542 -11.920524 0.70475608
1.5423837 -2.9553308 -0.64798737
8.3416443 -15.990063 1.5778675
1.7642703 -3.3819225 -0.60415
3.8558574 -7.3944235 1.0239463
2.114002 -4.0557733 -0.56157398
8.3013611 -15.933186 2.8455431
2.5758963 -4.9461422 -0.48789781
3.101465 -5.9578586 -0.35201168
3.7177427 -7.1447616 1.8594456
3.6780314 -7.0714583 -0.13913059
3.9290035 -7.5572033 2.2822666
1.2002012 -2.3154223 -0.69881141
5.0845628 -9.8133049 0.19291891
1.3523746 -2.6112258 -0.67890233
6.3313527 -12.22486 0.72150356
1.5361851 -2.9674034 -0.64951384
8.2766695 -15.994635 1.5756015
1.7578995 -3.3985875 -0.60602719
3.85008 -7.4466319 1.0293086
2.0888948 -4.0419655 -0.55864912
8.2357836 -15.936058 2.8411632
2.5695388 -4.9741287 -0.48981526
3.8200824 -7.3981047 1.6184419
3.0733213 -5.9544506 -0.35117432
3.7705133 -7.3083658 1.8985871
3.6600621 -7.0942783 -0.13934001
1.1974097 -2.3299069 -0.70191729
5.0739288 -9.8727961 0.19375661
1.3454891 -2.6191626 -0.67980212
6.2831674 -12.236227 0.72087556
1.5267144 -2.974494 -0.64989549
8.210783 -16.003929 1.5736841
1.7502265 -3.4114287 -0.60727865
3.883338 -7.5724058 1.0449078
2.0754795 -4.0488701 -0.55864912
3.8562968 -7.526145 1.3393921
2.555793 -4.9901609 -0.49051252
3.8098471 -7.4386897 1.6245478
3.0553789 -5.9681644 -0.35138363
3.7915323 -7.4093027 1.9215322
3.6352768 -7.1070113 -0.13934001
1.1927775 -2.3409576 -0.70398778
5.05586 -9.9269657 0.19445471
1.3385327 -2.6292865 -0.68115181
6.2563944 -12.294773 0.722969
1.5193624 -2.9870696 -0.65142196
4.0024629 -7.8688498 0.77237415
1.7457685 -3.4336684 -0.61009449
3.7962008 -7.4697895 1.0288211
2.0741119 -4.0829978 -0.56230521
2.5501101 -5.0243683 -0.49295285
3.7830331 -7.4567657 1.6253111
3.0360534 -5.9869771 -0.35180232
3.6524158 -7.2024193 1.8643944
3.6209571 -7.1434746 -0.13979377
3.9919717 -7.8788271 2.3666413
1.1754823 -2.3280687 -0.69881141
5.0356593 -9.9775629 0.19508299
1.3341533 -2.6446142 -0.68385124
6.2508574 -12.396089 0.72757453
1.5101713 -2.9961245 -0.6521852
1.7331722 -3.4400437 -0.61009449
3.71701 -7.3808222 1.0146842
2.0644884 -4.1012115 -0.56376767
3.7690613 -7.4906855 1.3281288
2.532573 -5.0354614 -0.4931272
3.7636135 -7.4863672 1.6287457
3.0096056 -5.9891419 -0.35127899
3.8394923 -7.6406236 1.9741704
3.6162922 -7.1995854 -0.1406315
3.932729 -7.8329792 2.3485241
1.1669415 -2.3323615 -0.69881141
5.0088944 -10.015627 0.19546695
1.3192232 -2.6390276 -0.68115181
6.2209444 -12.444631 0.72914463
1.498826 -2.9996214 -0.65180355
3.6580148 -7.3240323 0.71624589
1.7152582 -3.4357691 -0.6082173
3.6961379 -7.4068289 1.0163903
2.057251 -4.122602 -0.56571752
3.7825682 -7.5833421 1.3422079
2.5247593 -5.0638843 -0.49504462
3.7409611 -7.5064883 1.6302722
2.9860096 -5.9942479 -0.35096496
3.8101914 -7.648747 1.9728209
3.5911388 -7.2121644 -0.1406315
1.1660702 -2.3500626 -0.70295256
4.9916472 -10.064428 0.19609523
1.3147926 -2.6521177 -0.68340135
6.1681108 -12.441929 0.72778392
1.4941008 -3.01513 -0.65409327
3.6151361 -7.2986302 0.71258533
1.7091138 -3.4520597 -0.61009449
2.0365248 -4.1151686 -0.56376767
3.6514215 -7.3816018 1.3043507
2.5185506 -5.0936613 -0.49713635
3.7003913 -7.4871716 1.6234031
2.9590392 -5.9897914 -0.35012761
3.6915896 -7.4726458 1.9242315
3.5778277 -7.2455492 -0.14105035
3.7527747 -7.6031833 2.2719138
1.1608294 -2.3591168 -0.70450544
4.9767799 -10.118608 0.19682825
1.3059906 -2.6564631 -0.68340135
6.1625195 -12.540462 0.73228478
1.4884236 -3.028878 -0.65600139
3.5118566 -7.149631 0.69689733
1.7072334 -3.4772134 -0.61353606
3.6810412 -7.500679 1.0258962
2.0396328 -4.1578965 -0.56864244
3.5917156 -7.3251305 1.2921488
2.5174339 -5.1341848 -0.50027394
3.6902306 -7.5293713 1.6298906
2.9444318 -6.0103326 -0.3507556
3.5648217 -7.2831397 -0.14153902
3.744041 -7.6526771 2.2827842
1.1500468 -2.3579454 -0.70295256
4.9624591 -10.179057 0.19766594
1.2992707 -2.6662612 -0.68475103
6.1353245 -12.596013 0.73427355
1.4761224 -3.0305252 -0.65523815
3.4781566 -7.1439328 0.69515419
1.7028652 -3.4991374 -0.6163519
3.6392064 -7.4813519 1.0215088
2.0198982 -4.1542792 -0.56717998
3.6144783 -7.4371166 1.3096695
2.5021095 -5.1483169 -0.50079691
2.9277959 -6.0295572 -0.35127899
3.6759195 -7.5736213 1.9435772
3.5577075 -7.3333201 -0.14227203
3.605196 -7.4345121 2.2139382
1.138446 -2.3549881 -0.70088202
4.9373374 -10.217925 0.19808482
1.2933458 -2.6777992 -0.68655062
6.4670358 -13.389632 0.77928245
1.4706564 -3.0462673 -0.6575278
3.4454057 -7.1398797 0.6935854
1.6863496 -3.4961643 -0.61478752
3.6035857 -7.4743409 1.0188278
2.010556 -4.1720343 -0.56864244
3.5897968 -7.4490619 1.3096695
2.4858532 -5.1606102 -0.50114554
3.5966942 -7.4700427 1.6115729
2.9058654 -6.037941 -0.35117432
3.551466 -7.3826966 1.8913885
3.5385706 -7.3558903 -0.14248145
3.5562441 -7.395936 2.1989267
1.1343919 -2.3676589 -0.70347023
3.537379 -7.3830805 0.1429003
1.2895094 -2.6926188 -0.68925005
6.3943872 -13.358081 0.7761423
1.4591662 -3.0496116 -0.65714622
3.4410937 -7.1950006 0.69776887
1.6824174 -3.5177753 -0.61760336
3.5796363 -7.48804 1.0190716
2.0044122 -4.1947985 -0.57083601
3.5748401 -7.4847193 1.3137368
2.4721158 -5.1782455 -0.50201708
3.58882 -7.5173631 1.6192051
2.8806655 -6.0367284 -0.35054627
3.4212558 -7.172811 1.8347008
3.5059869 -7.3537579 -0.14220221
3.5378861 -7.4239993 2.2035854
1.1290214 -2.3766427 -0.70502311
3.5064399 -7.3845448 0.14269088
1.2767599 -2.690062 -0.68745047
1.4569242 -3.0724256 -0.6609624
3.4248977 -7.2225742 0.69933766
1.6675891 -3.5182719 -0.61666471
3.5424273 -7.4771686 1.015903
1.9957051 -4.2143283 -0.57254225
3.5571427 -7.515007 1.3168654
2.4676585 -5.2156587 -0.50480604
3.5360644 -7.477222 1.6077567
2.8568132 -6.0436349 -0.35033691
3.4828093 -7.3679395 1.8814907
3.5358243 -7.4834733 -0.14447103
3.5012245 -7.4135962 2.1968563
1.1252384 -2.3912525 -0.70812893
1.2710376 -2.7035413 -0.68970001
3.4835744 -7.4130464 0.42925957
1.4431493 -3.0724137 -0.65981752
3.4636266 -7.3739381 0.71275967
1.662239 -3.5404532 -0.61948055
3.5588512 -7.5835481 1.0285773
1.9836173 -4.2288032 -0.5735172
3.5765364 -7.6281524 1.3343862
2.4569807 -5.2427096 -0.50654918
3.5327859 -7.5416899 1.6188235
2.8363369 -6.0576825 -0.35054627
3.3880208 -7.2359366 1.8445989
3.521934 -7.5253611 -0.1450295
3.4633882 -7.4036303 2.1901269
1.1132016 -2.3883569 -0.70605838
4.8582659 -10.428087 0.20080739
1.2627653 -2.7117147 -0.6905998
6.3074579 -13.544899 0.78305066
1.4307588 -3.0738728 -0.65905434
3.4012778 -7.3107128 0.70543861
1.6609126 -3.5715983 -0.62386072
3.4766455 -7.4795332 1.0127343
1.9772114 -4.2537031 -0.57595456
3.580682 -7.7068748 1.3459623
2.4420223 -5.258482 -0.50724638
3.4866006 -7.5112391 1.6096648
2.8151741 -6.0675464 -0.35054627
3.3652022 -7.2530222 1.8459485
3.5124712 -7.5738907 -0.14572759
3.3887756 -7.3105125 2.1590683
1.1028447 -2.3867741 -0.70450544
4.8203039 -10.436877 0.20066777
1.2553993 -2.7194259 -0.69149959
6.2884569 -13.621955 0.78629553
1.4263158 -3.0910788 -0.66172564
3.3644986 -7.2948127 0.70282388
1.6457515 -3.5699108 -0.62260926
3.5731132 -7.7542434 1.0483202
1.9655863 -4.2656455 -0.57668579
3.5080028 -7.616437 1.3281288
2.4270704 -5.2719808 -0.50776935
3.4148934 -7.4211001 1.5879126
2.800046 -6.0877357 -0.35117432
3.3443897 -7.2712231 1.8477482
3.4990296 -7.6109333 -0.14621626
3.3653207 -7.3234653 2.1595864
1.0965326 -2.3939307 -0.70554072
4.7706833 -10.420078 0.20003949
1.2512403 -2.7342062 -0.69419903
6.2500091 -13.6638 0.78744686
1.4266737 -3.1190012 -0.66668665
3.4388742 -7.5215559 0.72356695
1.6347255 -3.5771449 -0.62292212
3.4904716 -7.6414604 1.0315022
1.9572805 -4.2869267 -0.57863569
3.4272671 -7.5100279 1.3074795
2.4152677 -5.2949224 -0.50916386
3.3764148 -7.4020171 1.581425
2.7765284 -6.0897183 -0.3507556
3.3149471 -7.2739868 1.8454986
3.4956503 -7.6740546 -0.1471936
3.3509448 -7.3597827 2.1668332
1.0901452 -2.4032116 -0.70709366
4.7326298 -10.433023 0.19996966
1.2384695 -2.7314577 -0.69239938
6.3242927 -13.95477 0.80293834
1.4144222 -3.1224208 -0.66630507
3.3808775 -7.4669542 0.71711749
1.6264899 -3.5939107 -0.62479931
3.5202498 -7.7783847 1.0483202
1.9414867 -4.2919235 -0.57839197
3.4254458 -7.575943 1.3168654
2.4115396 -5.3360014 -0.51230145
3.3581533 -7.4340239 1.5856228
2.751724 -6.0943928 -0.35044158
3.2505877 -7.2026048 1.8243532
3.4902294 -7.7335997 -0.14810112
3.3085513 -7.3344531 2.1559627
1.0896691 -2.424623 -0.71227002
4.7000952 -10.463069 0.200214
1.2316427 -2.7430899 -0.69419903
3.8744578 -8.6291142 0.4957262
1.4059258 -3.1327126 -0.66744989
3.4053504 -7.5914178 0.72792476
1.6155515 -3.6031711 -0.62542504
3.3593872 -7.4959612 1.0085907
1.9306122 -4.3098812 -0.57985443
3.411094 -7.6148953 1.3215585
2.4034839 -5.3680263 -0.51456749
3.3418062 -7.467205 1.5902023
2.7320645 -6.1076074 -0.35065094
3.2532666 -7.2761731 1.8400997
3.4803545 -7.7840724 -0.14883412
3.3097289 -7.4059262 2.1735625
1.0819844 -2.430177 -0.71278769
4.6686254 -10.485906 0.20035362
1.2257086 -2.7542806 -0.69599861
3.8410673 -8.6352873 0.49530756
1.3933868 -3.1340132 -0.66668665
3.423332 -7.7033982 0.73751193
1.6084073 -3.6193399 -0.62730229
3.152395 -7.0970564 0.95350581
1.9227531 -4.3307734 -0.58180428
3.4013188 -7.6646738 1.3281288
2.3823068 -5.3709197 -0.51404458
3.2931445 -7.4244065 1.5787537
2.7101777 -6.1129818 -0.35044158
3.4280775 -7.7358956 1.953475
3.4507308 -7.790688 -0.14872941
3.2713444 -7.3891692 2.1652801
1.0715803 -2.4284494 -0.71123475
4.6287675 -10.494819 0.200214
1.2192316 -2.7656748 -0.69779825
6.1536531 -13.965401 0.79979813
1.3853613 -3.1440067 -0.66783154
3.3126426 -7.5214281 0.71903485
1.5957636 -3.6249323 -0.62730229
3.1347978 -7.1243701 0.9556995
1.9188125 -4.3628983 -0.58521664
3.2902789 -7.4848137 1.2949647
2.370898 -5.3933821 -0.51543909
