# .PCD v0.7 - Point Cloud Data file format
VERSION 0.7
FIELDS x y z
SIZE 4 4 4
TYPE F F F
COUNT 1 1 1
WIDTH 1470
HEIGHT 1
VIEWPOINT 0 0 0 1 0 0 0
POINTS 1470
DATA ascii
3.236295 -0.45022449 -0.40119389
4.4803143 -0.62568051 -0.2370819
5.4856534 -0.76802945 -0.096686333
2.1155741 -0.29920745 -0.57250774
2.3095427 -0.32746291 -0.53853285
9.3829145 -1.3320451 0.49666828
2.5482757 -0.36176586 -0.50030124
14.967798 -2.127568 1.3226755
2.8631008 -0.40747955 -0.45804018
3.2464952 -0.4632009 -0.40265635
4.4860115 -0.64244848 -0.23750059
5.4789796 -0.78660482 -0.096616521
2.1182871 -0.30751452 -0.57354301
2.3160408 -0.3370482 -0.5403325
9.4412136 -1.3756413 0.50001782
2.5469325 -0.37110332 -0.50030124
12.176112 -1.7763026 1.0765477
2.8459508 -0.41568661 -0.45553723
3.2369192 -0.47394645 -0.40168139
4.4875789 -0.65946704 -0.23770994
5.4800167 -0.80726397 -0.096686333
2.1210222 -0.31547523 -0.57457829
2.3071401 -0.34398109 -0.53853285
9.5015411 -1.4183195 0.50347197
2.5650389 -0.38288996 -0.50411743
12.159986 -1.8173219 1.0756762
2.8522968 -0.42678756 -0.45678869
45.481113 -6.8134289 5.6466947
3.2470236 -0.48700917 -0.40314382
4.469449 -0.67274928 -0.23687255
5.4890289 -0.82817781 -0.096895754
2.1179984 -0.32258621 -0.57406068
2.2982199 -0.35085604 -0.53673327
9.5182505 -1.4547968 0.50462335
2.5598052 -0.39124799 -0.50335413
12.173262 -1.8627707 1.0774193
2.8546948 -0.43733957 -0.45741442
45.43351 -6.9685349 5.6437697
3.2335312 -0.49653268 -0.40168139
4.4907613 -0.69199663 -0.23812862
5.4979625 -0.84916443 -0.09710519
2.1264036 -0.33146513 -0.57664889
2.3085332 -0.36068112 -0.53943264
9.5486326 -1.4935685 0.50650746
2.5506656 -0.39896747 -0.50182766
12.160781 -1.9043274 1.0768963
2.8687632 -0.44974929 -0.45991737
3.2396226 -0.5090493 -0.40265635
4.476481 -0.70580173 -0.23750059
5.4989152 -0.86897504 -0.097175002
2.1137869 -0.33706039 -0.57354301
2.3168821 -0.37027493 -0.54168218
9.5946379 -1.5350945 0.50922889
2.560889 -0.40972954 -0.50411743
12.181602 -1.9511762 1.0793368
2.8652253 -0.45944765 -0.45960453
3.2535052 -0.52287453 -0.40460625
4.4937081 -0.7246027 -0.23854731
5.4761076 -0.8849743 -0.09682595
2.1049707 -0.34319341 -0.57147247
2.3021126 -0.37616029 -0.53853285
9.6522942 -1.5788941 0.51257843
2.551693 -0.41739848 -0.50259089
13.861717 -2.2699432 1.2288959
2.8558066 -0.46816805 -0.45835301
3.2516603 -0.53422821 -0.40460625
4.502975 -0.74223322 -0.23917533
5.4808769 -0.90538788 -0.096965574
2.1113822 -0.35180908 -0.57354301
2.3046298 -0.38483578 -0.53943264
9.6824665 -1.6168149 0.51446253
2.5540931 -0.42695034 -0.50335413
13.938208 -2.3324559 1.2363913
2.8541551 -0.47813389 -0.45835301
3.2419448 -0.54426068 -0.4036313
4.472784 -0.75330317 -0.23770994
5.4857316 -0.92488784 -0.09710519
2.11395 -0.35982537 -0.57457829
2.30142 -0.39214882 -0.53898275
9.6295118 -1.6425432 0.51195037
2.5429111 -0.43421096 -0.50144607
14.246168 -2.4351423 1.2644554
2.8525538 -0.48759595 -0.45835301
3.2244697 -0.55232716 -0.40168139
4.4623876 -0.76677847 -0.23729126
5.4864116 -0.94470966 -0.097175002
2.1089387 -0.36617252 -0.57354301
2.3038769 -0.40084794 -0.53988254
9.5528841 -1.6638091 0.50818217
2.5414572 -0.44264117 -0.50144607
14.37541 -2.5063255 1.2766573
2.8566725 -0.49856913 -0.45929164
3.2342544 -0.56563121 -0.40314382
4.4990282 -0.78925252 -0.2393847
5.4870191 -0.96454734 -0.097244807
2.1076477 -0.37353188 -0.57354301
2.3063011 -0.409569 -0.54078233
9.5155554 -1.6915518 0.50650746
2.5476286 -0.45288435 -0.50297254
14.1508 -2.5180933 1.257483
2.8646386 -0.51026976 -0.46085599
3.2322602 -0.57691741 -0.40314382
4.4923134 -0.80424809 -0.23917533
5.4796824 -0.98298872 -0.097175002
2.0987267 -0.37951165 -0.57147247
2.3163624 -0.41970164 -0.54348177
9.5371056 -1.7297471 0.50797284
2.5537591 -0.46317586 -0.50449902
14.126242 -2.5646265 1.2560885
2.8531222 -0.51850021 -0.45929164
3.2458506 -0.59104151 -0.40509373
4.4973378 -0.82135963 -0.23959403
5.4722838 -1.0013905 -0.09710519
2.1049886 -0.38823682 -0.57354301
2.2957206 -0.42424339 -0.53898275
9.5781441 -1.771746 0.51048499
2.5540571 -0.47244442 -0.50488061
14.070185 -2.6052146 1.2519051
2.8474102 -0.52773631 -0.45866591
3.2398641 -0.60164309 -0.40460625
4.4787354 -0.83412784 -0.23875666
5.5237961 -1.0307571 -0.098082528
2.1055191 -0.39593926 -0.57406068
2.2942255 -0.4322544 -0.53898275
9.7406902 -1.8370011 0.51948678
2.5388877 -0.47881001 -0.50220931
14.061006 -2.6543128 1.2519051
2.8494329 -0.53840595 -0.45929164
3.2260418 -0.61073327 -0.40314382
4.4757967 -0.84975648 -0.23875666
5.480875 -1.0425589 -0.09738443
2.1174054 -0.40583202 -0.57768416
2.3003576 -0.44173008 -0.54078233
9.8165951 -1.8868248 0.52388299
2.5410571 -0.48841065 -0.50297254
13.406006 -2.5791633 1.1943823
2.8514154 -0.54909605 -0.45991737
3.2511783 -0.62725526 -0.40655616
4.4884901 -0.86840975 -0.23959403
5.4772024 -1.0616844 -0.09738443
2.0970154 -0.40951797 -0.57250774
2.3064518 -0.45125386 -0.54258198
9.8298855 -1.9232024 0.5249297
2.5316298 -0.49576837 -0.50144607
2.8572352 -0.5605672 -0.46116886
3.2411776 -0.63706869 -0.40558121
4.4815125 -0.88329989 -0.2393847
5.4932704 -1.083712 -0.097733475
2.1069417 -0.41909677 -0.57561362
2.3087652 -0.4596608 -0.54348177
9.7878551 -1.9504772 0.5230456
2.541436 -0.50690645 -0.50373578
2.8437376 -0.56771874 -0.45929164
3.2468333 -0.64937061 -0.40655616
4.4903083 -0.90051264 -0.24001274
5.5012174 -1.1052438 -0.097942911
2.1074338 -0.4264645 -0.57613122
2.2842281 -0.46307099 -0.53808296
9.7105217 -1.9703335 0.51927745
2.5512855 -0.51767385 -0.50602549
16.213812 -3.2928436 1.4474826
2.8417387 -0.57764173 -0.45929164
3.2484372 -0.66149241 -0.40704364
4.4910512 -0.91698033 -0.24022207
5.5051622 -1.1260427 -0.098082528
2.1040401 -0.43342838 -0.57561362
2.2825975 -0.47104159 -0.53808296
9.660553 -1.9953297 0.51697463
2.5475402 -0.52617925 -0.50564384
16.194414 -3.3478067 1.4467852
2.839705 -0.58755773 -0.45929164
3.2383335 -0.67121601 -0.40606871
4.4682679 -0.9285875 -0.23917533
5.5207758 -1.1493282 -0.098431572
2.1062961 -0.44156304 -0.57664889
2.2923822 -0.48140946 -0.54078233
9.7473488 -2.0487585 0.52199888
2.5399239 -0.53385705 -0.50449902
14.973806 -3.1500175 1.3387122
2.8569665 -0.60153651 -0.46242031
3.2320857 -0.68169641 -0.40558121
4.4728155 -0.94583184 -0.23959403
5.5010796 -1.1652771 -0.098152332
2.0934055 -0.44649485 -0.57354301
2.2983108 -0.4910371 -0.54258198
9.7948236 -2.0944645 0.5249297
2.5476441 -0.54477245 -0.50640708
14.958823 -3.2014327 1.3383635
2.8432603 -0.60902315 -0.46054313
3.2374504 -0.69464022 -0.40655616
4.5007281 -0.96815956 -0.24126878
5.5047979 -1.1861573 -0.098291956
2.0918343 -0.45379946 -0.57354301
2.2927742 -0.49822909 -0.54168218
9.8069696 -2.1328866 0.52597642
2.5534008 -0.55533105 -0.50793356
2.8333964 -0.61726236 -0.45929164
3.2427635 -0.70762962 -0.40753111
4.4817123 -0.9804495 -0.24043141
5.5045304 -1.2062213 -0.09836176
2.0977836 -0.46276316 -0.57561362
2.2891183 -0.50580889 -0.54123229
9.7604609 -2.1584811 0.52388299
2.5476129 -0.56339282 -0.50717038
14.97696 -3.3148274 1.3420241
2.8273673 -0.62629449 -0.45866591
3.2480257 -0.72066468 -0.4085061
4.4860616 -0.99782217 -0.24085009
5.5198045 -1.2297771 -0.098710813
2.1055806 -0.47219664 -0.57820177
2.2854371 -0.5133692 -0.54078233
9.760663 -2.1942909 0.52430165
2.5475461 -0.57271284 -0.50755197
15.019724 -3.3793321 1.3469048
2.8405809 -0.63963163 -0.46116886
3.2299986 -0.728504 -0.40655616
4.4864478 -1.0143564 -0.24105945
5.5037761 -1.2463871 -0.098501377
2.0982687 -0.47825572 -0.57664889
2.276032 -0.51960886 -0.53898275
9.729578 -2.2230098 0.5230456
2.5321341 -0.57854086 -0.50488061
14.852456 -3.3962104 1.3329599
2.8498843 -0.65218717 -0.46304604
3.2158263 -0.7371133 -0.40509373
4.4945579 -1.0326941 -0.24168746
5.4915972 -1.2637975 -0.09836176
2.0853786 -0.48259783 -0.57354301
2.2932804 -0.53155386 -0.54348177
9.7299356 -2.2570672 0.52346432
2.5359392 -0.58826554 -0.50602549
16.436432 -3.8158062 1.476244
2.8515546 -0.66252834 -0.46367183
3.2365656 -0.7531724 -0.40801859
4.4833288 -1.0457782 -0.24126878
5.5029545 -1.2856408 -0.098641008
2.094965 -0.49252698 -0.57664889
2.2952046 -0.54044896 -0.54438156
9.7181091 -2.2901011 0.52325493
2.5434248 -0.59936553 -0.50793356
16.582024 -3.9106576 1.4905375
2.8415339 -0.670663 -0.46242031
3.2377806 -0.76537889 -0.4085061
4.491312 -1.0641845 -0.24189681
5.4906502 -1.3029948 -0.098501377
2.0969908 -0.50073409 -0.57768416
2.2819326 -0.54573786 -0.54168218
9.678977 -2.3165715 0.52158022
2.547045 -0.60961109 -0.50907844
13.425512 -3.2157464 1.2078043
2.8353336 -0.67965674 -0.46179458
3.2350893 -0.77667624 -0.4085061
4.4681511 -1.0751829 -0.24085009
5.5171728 -1.3296492 -0.099059857
2.0971076 -0.50850618 -0.57820177
2.2875884 -0.55553943 -0.54348177
9.6358986 -2.3418531 0.51969612
2.5429938 -0.61803454 -0.50869679
13.092838 -3.1844282 1.1788685
2.8482988 -0.69328713 -0.46429756
3.2246437 -0.7860834 -0.40753111
4.4876537 -1.0964617 -0.24210617
5.5241523 -1.3517514 -0.099269286
2.1009474 -0.51720876 -0.57975465
2.2950957 -0.56585366 -0.54573131
9.6858397 -2.389828 0.52283627
2.5484452 -0.62878859 -0.51022327
15.538196 -3.8366818 1.4002441
2.8381906 -0.70132983 -0.46304604
3.2141724 -0.7954272 -0.40655616
4.4682903 -1.1082731 -0.24126878
5.5116377 -1.3690978 -0.099129669
2.0878839 -0.52172929 -0.57664889
2.2987778 -0.5752809 -0.54708099
9.7239361 -2.4352679 0.52534837
2.5386174 -0.63577276 -0.50869679
13.673264 -3.4268763 1.2332537
2.8357251 -0.71123266 -0.46304604
3.2344797 -0.8124451 -0.40948102
4.4798894 -1.1277645 -0.24210617
5.5107031 -1.3893064 -0.099199481
2.0935402 -0.53091359 -0.57871938
2.292978 -0.58234227 -0.5461812
9.6650457 -2.4564047 0.52262688
2.5439932 -0.6465646 -0.51022327
14.750254 -3.7515686 1.3315654
2.8332253 -0.72112685 -0.46304604
3.2316241 -0.82373059 -0.40948102
4.4759254 -1.1433953 -0.24210617
5.5251932 -1.4134899 -0.099548534
2.0954161 -0.53918099 -0.57975465
2.2871571 -0.58937013 -0.54528135
9.3624468 -2.4143214 0.50671679
2.5417209 -0.65544099 -0.51022327
14.011693 -3.615844 1.2660244
2.8306906 -0.73101223 -0.46304604
3.228729 -0.83500612 -0.40948102
4.4641728 -1.1570078 -0.24168746
5.5279675 -1.4347774 -0.09968815
2.0972598 -0.54746807 -0.58078998
2.2775445 -0.59537876 -0.54348177
9.3926067 -2.4570971 0.50881022
2.5394175 -0.6643092 -0.51022327
14.52325 -3.8019764 1.313437
2.8243001 -0.73988754 -0.46242031
3.2181141 -0.84425652 -0.4085061
4.4794235 -1.1776619 -0.24273418
5.5306606 -1.4561014 -0.099827766
2.084131 -0.55181873 -0.57768416
2.2905216 -0.60732079 -0.54708099
9.5886021 -2.544163 0.51990539
2.5294931 -0.67115545 -0.50869679
13.966852 -3.7084622 1.2642812
2.8369734 -0.75379997 -0.46492329
3.2113106 -0.85446376 -0.40801859
4.4675665 -1.1912327 -0.2423155
5.5294085 -1.4764301 -0.099897578
2.0877893 -0.56059331 -0.57923704
2.2959151 -0.61733645 -0.54888058
9.5685406 -2.5728343 0.51927745
2.5404055 -0.68355173 -0.5113681
2.8343246 -0.76369822 -0.46492329
3.2314596 -0.87130964 -0.41094348
4.4865174 -1.2130758 -0.24357156
5.5244823 -1.494758 -0.099897578
2.0915112 -0.56903499 -0.58078998
2.2900949 -0.62392217 -0.54798079
9.5059986 -2.5898504 0.51634657
2.5343366 -0.69093943 -0.51060492
13.037881 -3.5569789 1.1823548
2.8279653 -0.77205241 -0.46429756
3.2285526 -0.88202077 -0.41094348
4.48247 -1.2279469 -0.24357156
5.519495 -1.5130696 -0.099897578
2.0989246 -0.57853431 -0.5833782
2.2842565 -0.63047606 -0.54708099
9.6124115 -2.6549203 0.52262688
2.530139 -0.69881713 -0.51022327
14.122557 -3.9032629 1.2818867
2.8253894 -0.78142607 -0.46429756
3.2331061 -0.8954044 -0.4119184
4.4552789 -1.2363955 -0.2423155
5.5257397 -1.5355393 -0.100107
2.0913105 -0.58429784 -0.58182526
2.2820418 -0.63844568 -0.54708099
9.6377058 -2.6981499 0.52451098
2.537137 -0.71029109 -0.51213133
14.15489 -3.9654348 1.2860701
2.8264489 -0.79235023 -0.46492329
3.2108486 -0.9013195 -0.40948102
4.4509358 -1.2519399 -0.2423155
5.5472932 -1.5624082 -0.10059568
2.0929759 -0.59264702 -0.58286053
2.2872984 -0.64853394 -0.54888058
9.651763 -2.7366326 0.52576709
2.5214212 -0.71539187 -0.50946003
12.814649 -3.6382608 1.1654465
2.8312669 -0.80437094 -0.46617478
3.2153203 -0.91469485 -0.410456
4.4657459 -1.2729439 -0.24336222
5.5228519 -1.5753102 -0.10024662
2.074182 -0.59515399 -0.57820177
2.2907546 -0.65772879 -0.55023032
9.6920624 -2.7846465 0.52848852
2.5264561 -0.72635877 -0.51098651
13.154181 -3.7843263 1.1975199
2.8323805 -0.81484753 -0.46680051
3.2084541 -0.92425305 -0.4099685
4.4845271 -1.2943923 -0.24461828
5.5365295 -1.6001309 -0.10059568
2.0740521 -0.60256773 -0.57871938
2.2903161 -0.66626525 -0.55068022
9.7244701 -2.8307419 0.53079128
2.5201352 -0.73407525 -0.51022327
13.191294 -3.8424134 1.202052
2.825726 -0.82362401 -0.46617478
3.2318869 -0.94323319 -0.41338086
4.472086 -1.3085767 -0.2441996
5.5577784 -1.6273141 -0.10108434
2.0792425 -0.61234862 -0.58078998
2.2803817 -0.67245048 -0.54888058
9.7485113 -2.8765399 0.53267539
2.5381398 -0.74942249 -0.51442105
13.131262 -3.8771951 1.1978685
2.8151104 -0.83173633 -0.46492329
3.2169867 -0.95169359 -0.4119184
4.4481115 -1.3192799 -0.24315289
5.5364404 -1.6431218 -0.1008051
2.0862398 -0.62272805 -0.5833782
2.2741675 -0.67968792 -0.54798079
9.7345839 -2.9094067 0.53246611
2.5317464 -0.75715274 -0.51365787
12.677949 -3.7939212 1.1577768
2.8271818 -0.84658188 -0.46742624
3.2058713 -0.96119767 -0.41094348
4.466433 -1.3416936 -0.24440894
5.5536513 -1.6693455 -0.10122395
2.0822041 -0.62944764 -0.58286053
2.2719011 -0.68722558 -0.54798079
9.7320147 -2.9456835 0.53288472
2.5102983 -0.76029474 -0.50984168
12.870558 -3.9005613 1.1766025
2.8281398 -0.85709828 -0.46805197
3.2064652 -0.97297615 -0.41143093
4.4619594 -1.3564975 -0.24440894
5.5401382 -1.6863918 -0.10108434
2.0653265 -0.63182783 -0.57871938
2.2806683 -0.69857621 -0.55068022
9.7369499 -2.9843187 0.53372216
2.5152717 -0.77091616 -0.5113681
12.804217 -3.9268634 1.1717217
2.8251307 -0.86696512 -0.46805197
3.2144346 -0.987661 -0.41289338
4.4724684 -1.3767653 -0.24524632
5.5380402 -1.7068981 -0.10115415
2.0666873 -0.64053726 -0.57975465
2.2893836 -0.70999634 -0.5533796
9.1008053 -2.8241339 0.49938977
2.5161791 -0.78129435 -0.51213133
12.295045 -3.820066 1.1264008
2.8181615 -0.87614107 -0.46742624
3.2033856 -0.99651688 -0.4119184
4.4559517 -1.389581 -0.24461828
5.5396838 -1.7286018 -0.10129377
2.0681255 -0.64890414 -0.58078998
2.2718925 -0.71371019 -0.54978037
8.9836941 -2.823931 0.4935281
2.526547 -0.79419386 -0.51480269
12.13719 -3.8175273 1.1131531
2.8188548 -0.88715905 -0.46805197
3.1997116 -1.0082513 -0.4119184
4.4548831 -1.4063293 -0.24482764
5.5218701 -1.7452782 -0.10108434
2.0823033 -0.66174573 -0.58544868
2.2712445 -0.7222268 -0.55023032
9.0004263 -2.8637505 0.49499351
2.5198777 -0.8022576 -0.51403946
14.082254 -4.4860978 1.2930425
2.8193481 -0.8986845 -0.4686777
3.1961725 -1.0194142 -0.4119184
4.4496989 -1.4226477 -0.24482764
5.5157447 -1.7645425 -0.10108434
2.0800974 -0.66864723 -0.58544868
2.2724197 -0.73134452 -0.55113012
8.9789696 -2.8914776 0.49436548
2.5134656 -0.8094058 -0.51327622
14.074886 -4.5352154 1.2937398
2.823873 -0.9104535 -0.46992919
3.1925948 -1.0305647 -0.4119184
4.4563584 -1.4410826 -0.24545565
5.5171618 -1.7862492 -0.10122395
2.0667281 -0.6723184 -0.58234286
2.2717061 -0.73987579 -0.55158001
8.9688206 -2.922802 0.49436548
2.5068917 -0.81695777 -0.51251298
18.696043 -6.0963655 1.7204543
2.8150439 -0.91846699 -0.46899059
3.1965256 -1.0441682 -0.41289338
4.4550977 -1.4578718 -0.245665
5.5032916 -1.8030062 -0.10108434
2.0698736 -0.68134046 -0.5838958
2.2783637 -0.7508508 -0.55382955
8.9856348 -2.9612796 0.49583086
2.5152118 -0.82939255 -0.51480269
11.488599 -3.7905951 1.0584193
2.8099446 -0.92766845 -0.4686777
3.2081246 -1.0597435 -0.41484326
4.472734 -1.4809476 -0.24692108
5.5200615 -1.8287927 -0.1015032
2.0712686 -0.68942094 -0.58493102
2.2666173 -0.75532162 -0.55158001
8.983346 -2.9935868 0.49624959
2.5236223 -0.84145468 -0.51709241
18.597412 -6.204566 1.715225
2.808727 -0.93760687 -0.46899059
67.996872 -22.711853 8.8023796
3.2045929 -1.0703763 -0.41484326
4.4374952 -1.4856265 -0.24524632
5.4912128 -1.8394656 -0.10108434
2.078126 -0.69936675 -0.58751929
2.2530196 -0.75910044 -0.54888058
8.995553 -3.0325823 0.49750566
2.5189579 -0.84919149 -0.51671082
18.576736 -6.2662029 1.715225
2.8112173 -0.94881094 -0.46992919
67.943748 -22.944834 8.8053045
3.2008371 -1.0815558 -0.41484326
4.4438953 -1.5041755 -0.24587436
5.5036974 -1.8650402 -0.10143339
2.068234 -0.70448714 -0.58544868
2.2651126 -0.77198958 -0.5524798
8.9962549 -3.0678322 0.49813369
2.5102541 -0.85651624 -0.51556593
18.587585 -6.3458362 1.7183627
2.8189366 -0.9629395 -0.47180638
3.1970422 -1.0927223 -0.41484326
4.4496894 -1.5243369 -0.24650237
5.4858041 -1.88035 -0.10122395
2.0602827 -0.70981449 -0.5838958
2.2733214 -0.78409892 -0.55517924
9.0491409 -3.1229374 0.50169253
2.4979699 -0.86207116 -0.51365787
18.493757 -6.3859682 1.7117388
2.8118238 -0.97148341 -0.47118065
3.1967678 -1.1057307 -0.41533077
4.4518905 -1.5424753 -0.24692108
5.4750967 -1.8991333 -0.10115415
2.0687382 -0.72081578 -0.58700162
2.2742505 -0.79331326 -0.55607903
9.0683565 -3.165036 0.50336725
2.506067 -0.87466705 -0.51594758
18.527781 -6.4701915 1.7169681
2.8046863 -0.97998947 -0.47055492
3.1966362 -1.1181935 -0.41581824
4.4427085 -1.5566851 -0.24671172
5.4835296 -1.9235287 -0.10143339
2.0662096 -0.72803259 -0.58700162
2.2457387 -0.79217136 -0.54978037
9.1099892 -3.2152839 0.50629812
2.5085526 -0.88536972 -0.51709241
18.542658 -6.5480938 1.7204543
2.7937982 -0.98714137 -0.46930346
3.2001994 -1.1319931 -0.41679317
4.4259524 -1.5681814 -0.24608369
5.4956284 -1.9493428 -0.10178243
2.0709348 -0.73783398 -0.58907217
2.2521374 -0.80327904 -0.55202997
9.1476183 -3.2645178 0.50901955
2.509145 -0.89544064 -0.51785564
18.474655 -6.5967007 1.7162709
2.805217 -1.0022042 -0.47180638
3.1887519 -1.1404829 -0.41581824
4.4354935 -1.58901 -0.24692108
5.473732 -1.963114 -0.1015032
2.0683467 -0.74505842 -0.58907217
2.262152 -0.81576306 -0.55517924
9.2306824 -3.3287108 0.51425314
2.4875367 -0.89753062 -0.51403946
18.402792 -6.6435595 1.7117388
2.8072753 -1.0140034 -0.472745
3.1959522 -1.1556569 -0.41728067
4.4599657 -1.6153655 -0.2485958
5.4671926 -1.9812549 -0.1015032
2.047581 -0.74566329 -0.5838958
2.2594345 -0.82326013 -0.55517924
9.3578653 -3.4115343 0.52199888
2.4991436 -0.91159022 -0.51709241
18.428152 -6.7255163 1.7162709
2.805753 -1.0239842 -0.4730579
3.1921024 -1.1662488 -0.41728067
4.4245749 -1.6191646 -0.24692108
5.4452219 -1.9948236 -0.10122395
2.0450971 -0.75244921 -0.5838958
2.262033 -0.83316261 -0.55652899
10.256688 -3.7798247 0.57286942
2.4961069 -0.91987264 -0.51709241
18.42444 -6.7934823 1.718014
2.8169878 -1.0392417 -0.47556084
3.1842875 -1.1760087 -0.41679317
4.4338813 -1.6401424 -0.24775843
5.4494767 -2.0179853 -0.10143339
2.0531888 -0.76398206 -0.58700162
2.2591109 -0.84105355 -0.55652899
10.280864 -3.8295479 0.57496285
2.4963982 -0.93038648 -0.51785564
18.399418 -6.8609657 1.718014
2.7946522 -1.0426544 -0.47243217
3.183883 -1.1885053 -0.41728067
4.4128752 -1.6507844 -0.24692108
5.4573817 -2.042603 -0.10171262
2.054126 -0.77250433 -0.58803689
2.2432466 -0.84452164 -0.5533796
10.237527 -3.8541522 0.57328814
2.4986467 -0.94117087 -0.51900047
18.36417 -6.9209332 1.7169681
2.7946923 -1.0537971 -0.4730579
3.1834295 -1.2010132 -0.41776815
4.4220314 -1.6718284 -0.24775843
5.4464779 -2.0602252 -0.10164282
2.0551648 -0.78068388 -0.58907217
2.2513626 -0.85611182 -0.55607903
10.250826 -3.8980186 0.57475352
2.4826674 -0.9445647 -0.51632917
18.285257 -6.9605293 1.7117388
2.8004124 -1.0665743 -0.47462222
3.1794293 -1.2115632 -0.41776815
4.4052677 -1.6822082 -0.24713041
5.4358797 -2.0768476 -0.10157301
2.0435464 -0.78403479 -0.58648396
2.2630649 -0.86916238 -0.55967826
10.222242 -3.928046 0.57391614
2.4868522 -0.95560932 -0.51785564
18.310427 -7.0397162 1.7162709
2.8042347 -1.0786917 -0.47587368
3.1751807 -1.2226541 -0.41776815
4.4033928 -1.6982449 -0.24733976
5.4323282 -2.0972502 -0.10164282
2.0460625 -0.79361522 -0.58803689
2.2509334 -0.87353152 -0.55742878
10.268047 -3.9868371 0.57726568
2.4888227 -0.96685028 -0.51900047
18.291929 -7.1096673 1.7169681
2.7892163 -1.0846668 -0.47399649
3.1856935 -1.2394886 -0.41971806
4.4083033 -1.7187256 -0.24796779
5.4585075 -2.1292806 -0.1022711
2.0432796 -0.80075252 -0.58803689
2.2422743 -0.8796407 -0.55607903
10.239194 -4.01682 0.57642829
2.4909153 -0.97768396 -0.52014536
18.255875 -7.1691051 1.7159222
2.792767 -1.0972857 -0.47524795
3.1922128 -1.2555157 -0.42118049
4.3948436 -1.7311748 -0.24754909
5.4733672 -2.1571202 -0.10268996
2.0530455 -0.81285822 -0.59166032
2.2302861 -0.88348293 -0.55382955
10.22511 -4.0525365 0.57642829
2.4966123 -0.98999113 -0.52205342
18.230738 -7.2327862 1.7159222
2.7817686 -1.1036271 -0.47399649
3.1806526 -1.2631639 -0.42020553
4.377944 -1.7413104 -0.24692108
5.4583726 -2.1732538 -0.10255034
2.0449574 -0.8175106 -0.5901075
2.2344255 -0.89415878 -0.55562913
10.177527 -4.074842 0.57454419
2.478735 -0.99242699 -0.51900047
18.206654 -7.2932024 1.7159222
2.7889006 -1.1177398 -0.47587368
3.183593 -1.277215 -0.42118049
4.3977842 -1.7670064 -0.24838647
5.4544635 -2.1937861 -0.10262015
2.0401561 -0.82427657 -0.58958983
2.2385175 -0.90487432 -0.55742878
10.211382 -4.1298132 0.57726568
2.4714413 -1.0000327 -0.51823723
18.19088 -7.3643694 1.7169681
2.7902777 -1.1301789 -0.4768123
61.483803 -24.903503 8.1450157
3.1717565 -1.285338 -0.42020553
4.3875775 -1.7816106 -0.24817713
5.428246 -2.2052858 -0.1022711
2.044421 -0.83431262 -0.59166032
2.2351861 -0.91307276 -0.55742878
10.196177 -4.1672115 0.57726568
2.4788394 -1.01311 -0.52052695
18.146622 -7.4202809 1.715225
2.7716894 -1.1339281 -0.47430936
3.174372 -1.2999636 -0.42118049
4.3924189 -1.8014622 -0.24880517
5.4386258 -2.2327611 -0.10262015
2.0377772 -0.84032726 -0.59062505
2.2193751 -0.91566688 -0.55427945
10.1668 -4.1966815 0.57642829
2.4841824 -1.0259355 -0.52243507
18.137716 -7.4943504 1.7169681
2.7711661 -1.1455886 -0.47493511
3.1881588 -1.3186232 -0.42361787
4.3820968 -1.81602 -0.2485958
5.4344935 -2.2532635 -0.10268996
2.0476124 -0.85191959 -0.59424853
2.2289193 -0.92826593 -0.55742878
10.152826 -4.230372 0.57642829
2.4845715 -1.0352449 -0.52319831
18.19132 -7.5834937 1.7242892
2.7639067 -1.1527679 -0.47430936
3.154459 -1.316952 -0.41971806
4.3800554 -1.8313186 -0.24880517
5.4380598 -2.2759049 -0.10289939
2.0426955 -0.85867018 -0.59373093
2.2238688 -0.93528509 -0.55697882
10.149044 -4.2704344 0.57705635
2.4626658 -1.0367271 -0.51938212
18.100975 -7.6238236 1.7183627
2.7742262 -1.1690271 -0.4768123
3.1425261 -1.3248702 -0.4187431
4.3990712 -1.8582406 -0.25027055
5.4485016 -2.3026578 -0.10324844
2.0290163 -0.86126626 -0.59062505
2.2311876 -0.9480021 -0.55967826
10.123046 -4.3011484 0.57642829
2.4590321 -1.0453169 -0.51938212
18.096254 -7.6963172 1.7204543
2.7701285 -1.1787038 -0.4768123
3.1705229 -1.350381 -0.42313039
4.3925581 -1.8735849 -0.25027055
5.4293947 -2.3169532 -0.10303901
2.0295486 -0.86986572 -0.59166032
2.2226584 -0.9530918 -0.55832857
10.137338 -4.3490577 0.57810301
2.4698009 -1.0600891 -0.52243507
18.087585 -7.7673006 1.7221974
2.7553141 -1.1832068 -0.47493511
3.1587324 -1.3577518 -0.42215544
4.3936596 -1.8912996 -0.25068927
5.435966 -2.3422215 -0.10331824
2.0426109 -0.88349342 -0.59631914
2.2139528 -0.95852178 -0.55697882
10.093534 -4.3699541 0.57642829
2.4626691 -1.0667129 -0.52167183
18.043447 -7.8193164 1.7204543
2.7584167 -1.1959605 -0.47618657
3.150332 -1.3671889 -0.42166796
4.3833671 -1.9050325 -0.25047991
5.4428396 -2.3666141 -0.10359748
2.0342033 -0.88829881 -0.5947662
2.212548 -0.96663851 -0.55742878
10.096519 -4.4131594 0.57747501
2.4661255 -1.078449 -0.52319831
18.107309 -7.9221816 1.7291698
2.7634842 -1.2090601 -0.47775093
3.1385074 -1.3744431 -0.42069301
4.3770256 -1.9195578 -0.25047991
5.4345455 -2.3855984 -0.10359748
2.0294783 -0.89426047 -0.59424853
2.2198582 -0.97907412 -0.56012815
10.081053 -4.4483757 0.57747501
2.4445741 -1.0786953 -0.51938212
18.117393 -7.9982777 1.7326561
2.761054 -1.2194973 -0.47806379
3.1300595 -1.3837849 -0.42020553
4.3666458 -1.9332078 -0.25027055
5.4225283 -2.4029338 -0.10352767
2.0139887 -0.89584333 -0.59062505
2.2253284 -0.99078006 -0.56237763
10.065463 -4.4835382 0.57747501
2.4443805 -1.0888196 -0.52014536
18.100281 -8.0663357 1.7337019
2.7603886 -1.2307364 -0.47868952
3.1360867 -1.3995563 -0.42166796
4.3635182 -1.9500682 -0.25047991
5.4433141 -2.4349122 -0.10408615
2.0196612 -0.90682447 -0.59321326
2.2200789 -0.99774307 -0.5619278
10.064324 -4.525198 0.57831234
2.4530993 -1.1029811 -0.52281672
18.093819 -8.1392765 1.7357937
2.7578769 -1.2411751 -0.47900239
42.585613 -19.17448 5.7344403
3.1384218 -1.4137559 -0.42264292
4.3639669 -1.9685729 -0.2508986
5.4457169 -2.4588351 -0.10429558
2.0235221 -0.91705877 -0.59528387
2.2077093 -1.0014614 -0.55967826
10.04483 -4.558651 0.57810301
2.4635363 -1.1180279 -0.52586961
18.101582 -8.2188616 1.73928
2.7337441 -1.2418077 -0.47556084
3.1370821 -1.4263456 -0.42313039
4.3570685 -1.983794 -0.2508986
5.4516578 -2.4844635 -0.10457481
2.0203087 -0.92411655 -0.59528387
2.205972 -1.0099728 -0.56012815
9.9998035 -4.5803785 0.57642829
2.4560487 -1.1249853 -0.52510637
18.05829 -8.2753563 1.7378855
2.7473493 -1.259575 -0.47868952
38.441471 -17.632351 5.192853
3.1248672 -1.4339758 -0.42215544
4.3537474 -2.000659 -0.25110796
5.4429522 -2.5034781 -0.10457481
2.0204155 -0.93313509 -0.59631914
2.2112782 -1.0217539 -0.56237763
9.9656239 -4.6068759 0.57538158
2.4447815 -1.1306833 -0.5235799
18.067619 -8.3598957 1.7417203
2.7427142 -1.2696363 -0.47868952
38.149105 -17.659691 5.1616549
3.1378558 -1.4532171 -0.42459282
4.3717494 -2.0283711 -0.25257334
5.4196696 -2.5157268 -0.10429558
2.0031381 -0.93365294 -0.59217799
2.2075183 -1.0298518 -0.56237763
10.029122 -4.6787877 0.57998711
2.4408197 -1.1392103 -0.5235799
18.050966 -8.428812 1.7429405
2.7382658 -1.2792023 -0.47868952
37.997803 -17.759052 5.1499553
3.1361046 -1.4663898 -0.4250803
4.3610249 -2.0419252 -0.25236401
5.4072332 -2.5329332 -0.10422577
2.0086076 -0.94475067 -0.5947662
2.2111442 -1.0404854 -0.56417727
10.041641 -4.7273784 0.58166188
2.4510372 -1.1544157 -0.52663285
17.985388 -8.4747858 1.7394543
2.7304349 -1.2865918 -0.47806379
37.949471 -17.890036 5.1514173
3.1348155 -1.478475 -0.42556778
4.361454 -2.0597873 -0.2527827
5.4019747 -2.5535016 -0.10429558
2.0106995 -0.95389038 -0.59631914
2.1934159 -1.0415105 -0.56057805
9.9853897 -4.7435474 0.57935911
2.4507422 -1.1642221 -0.52739608
18.003971 -8.5566168 1.7439864
2.7259271 -1.2961149 -0.47806379
37.938782 -18.047127 5.1584859
3.1224658 -1.4859964 -0.42459282
4.3434191 -2.0698438 -0.25215468
5.4074674 -2.5792298 -0.10457481
2.0125854 -0.96340567 -0.59787202
2.1880095 -1.0483184 -0.56012815
9.961566 -4.7749205 0.57894039
2.4289596 -1.1642838 -0.5235799
18.11412 -8.6866074 1.7575827
2.7285101 -1.3090401 -0.47931525
33.537514 -16.097281 4.5676637
3.1172597 -1.4968868 -0.42459282
4.3469677 -2.0901856 -0.2527827
5.3912239 -2.5946209 -0.1044352
2.0109496 -0.97126514 -0.59838963
2.1896005 -1.0584941 -0.56147784
9.9636593 -4.8166208 0.57998711
2.4178109 -1.169336 -0.52205342
2.7381485 -1.3254418 -0.4818182
33.620472 -16.281736 4.5866752
3.1158519 -1.5089462 -0.4250803
4.3432384 -2.10709 -0.25299203
5.3789926 -2.6107383 -0.10436539
1.9955604 -0.97200668 -0.5947662
2.1983399 -1.0717272 -0.56462723
9.9619932 -4.856637 0.58082449
2.4209783 -1.1807901 -0.5235799
17.780611 -8.6760263 1.730913
2.7248623 -1.3301816 -0.48025388
33.213116 -16.220652 4.538415
3.1286683 -1.5279818 -0.42751768
4.3541679 -2.1302586 -0.25403875
5.3703051 -2.6285615 -0.10436539
1.9957938 -0.98032224 -0.59580147
2.1860297 -1.0747123 -0.56237763
9.9593182 -4.8984327 0.58166188
2.4240959 -1.1922776 -0.52510637
17.640905 -8.6804018 1.7201056
2.7186639 -1.3383378 -0.47994098
33.575855 -16.535929 4.5954494
3.1233156 -1.5388936 -0.42751768
4.3721561 -2.1570575 -0.25550416
5.3790278 -2.6561449 -0.10471445
1.9940908 -0.98814058 -0.59631914
2.1682985 -1.0754094 -0.55877846
9.9063759 -4.9154129 0.57956845
2.4234366 -1.2024772 -0.52586961
2.7139754 -1.3478196 -0.47994098
32.888603 -16.340357 4.5091658
3.1250355 -1.5533211 -0.42849267
4.3538718 -2.1669664 -0.25487614
5.3554034 -2.6677721 -0.1044352
2.0079093 -1.0037333 -0.6014955
2.1802163 -1.0908194 -0.56282759
9.9070187 -4.9589028 0.58061516
2.4157133 -1.2091718 -0.52510637
17.827507 -8.92735 1.7443351
2.7145529 -1.3599392 -0.4808796
32.909451 -16.494196 4.5198903
3.1195941 -1.56422 -0.42849267
4.342711 -2.1803586 -0.25466678
5.3496323 -2.6882455 -0.10450501
1.9940435 -1.0055171 -0.59838963
2.1694367 -1.0949109 -0.561028
9.8753843 -4.9862523 0.57977778
2.4044678 -1.2140574 -0.5235799
16.231262 -8.1990004 1.590941
2.7186043 -1.3738614 -0.48244393
32.802071 -16.583893 4.5130658
3.1194289 -1.5777876 -0.42922387
4.3457646 -2.2009187 -0.25529483
5.3223796 -2.6978617 -0.10415597
1.9836339 -1.0089681 -0.59631914
2.1638646 -1.1015929 -0.56057805
9.8650389 -5.0243196 0.58019644
2.4072127 -1.226007 -0.52510637
16.195442 -8.2519903 1.5902436
2.7173119 -1.3851371 -0.48306966
32.878384 -16.76683 4.53159
3.1050613 -1.5841562 -0.42800516
4.3380551 -2.2160747 -0.25529483
5.3342953 -2.7273476 -0.10457481
1.9886941 -1.0202954 -0.59890729
2.1738746 -1.1162608 -0.56417727
9.8545465 -5.0623746 0.58061516
2.4064112 -1.2361964 -0.52586961
16.212612 -8.3321505 1.5947757
2.7054334 -1.3910007 -0.4818182
33.19389 -17.073992 4.5832624
3.1101034 -1.600435 -0.42946759
4.3160901 -2.2238858 -0.25445744
5.331852 -2.7496176 -0.10471445
1.995415 -1.0325581 -0.60201317
2.1561215 -1.1166725 -0.56057805
9.8403616 -5.0985799 0.58082449
2.4177701 -1.2527176 -0.52930421
16.162203 -8.3776894 1.5926839
2.7040684 -1.4022547 -0.48244393
33.246861 -17.24826 4.5988617
3.1009741 -1.6094528 -0.42898014
4.3153896 -2.2426217 -0.25487614
5.3186731 -2.7663667 -0.10464463
1.9986491 -1.0430924 -0.60408366
2.1573923 -1.1268986 -0.5619278
9.8118839 -5.1273489 0.58019644
2.4081624 -1.2584218 -0.52815932
16.150517 -8.4432859 1.5944271
2.7061591 -1.4153471 -0.48369545
32.947243 -17.239048 4.5657134
3.0918198 -1.6184261 -0.42849267
4.303997 -2.2558174 -0.25466678
5.3160672 -2.7886312 -0.10478425
1.9915767 -1.0482631 -0.60304838
2.1534457 -1.1344225 -0.5619278
9.7797918 -5.1541181 0.57935911
2.4089656 -1.2695662 -0.52930421
16.113895 -8.4958935 1.5937299
2.7099383 -1.4293929 -0.48525977
29.466858 -15.549259 4.0909104
3.0791295 -1.6255018 -0.42751768
4.3102231 -2.2782943 -0.25550416
5.3027663 -2.8053007 -0.10471445
1.9793737 -1.0506797 -0.60046023
2.1563563 -1.1455896 -0.56372738
9.7864313 -5.2013469 0.58082449
2.4045193 -1.2779673 -0.52930421
16.080624 -8.5502195 1.5933813
2.718884 -1.4462649 -0.48776269
34.578495 -18.401197 4.8094521
3.0874548 -1.6437029 -0.42946759
4.3057685 -2.2952046 -0.25571349
5.2647123 -2.8087335 -0.10415597
1.9756941 -1.0575826 -0.60046023
2.1557801 -1.1549504 -0.56462723
9.7682152 -5.235476 0.58082449
2.4035046 -1.2882077 -0.53006744
16.099846 -8.6326618 1.5982621
2.6964116 -1.4464091 -0.48463401
28.559978 -15.326564 3.9797657
3.0921919 -1.6601039 -0.43093005
4.3047671 -2.3140032 -0.25613219
5.2830524 -2.8422523 -0.10471445
1.9753904 -1.066308 -0.6014955
2.1328754 -1.1522794 -0.55967826
9.7393389 -5.263844 0.58019644
2.4110832 -1.303124 -0.53273875
17.604893 -9.5189295 1.7509588
2.701771 -1.4614515 -0.48651123
28.450439 -15.395931 3.971966
3.0898697 -1.6727777 -0.43141752
4.286129 -2.3233051 -0.25550416
5.2941909 -2.8721189 -0.1051333
1.9750496 -1.0750439 -0.60253078
2.1476645 -1.1699723 -0.56462723
9.7007828 -5.284646 0.57894039
2.3892808 -1.3021374 -0.52892256
17.592548 -9.5917683 1.7530506
2.7018559 -1.4737115 -0.48744985
28.427887 -15.512261 3.9763534
3.0735574 -1.6778461 -0.42995507
4.2709823 -2.3344204 -0.25508547
5.2811289 -2.8877404 -0.10506349
1.974672 -1.0837905 -0.60356599
2.1403563 -1.1752119 -0.56372738
9.7137861 -5.3357844 0.58082449
2.3984857 -1.3180336 -0.53197551
17.558962 -9.65312 1.7530506
2.7004161 -1.4845662 -0.48807558
28.348459 -15.591142 3.9724534
3.0679765 -1.6880292 -0.42995507
4.2737136 -2.354353 -0.25571349
5.2500024 -2.8945713 -0.10464463
1.9575437 -1.0828521 -0.59942496
2.1447656 -1.1873952 -0.56597686
9.6951017 -5.3696599 0.58082449
2.3872323 -1.3221754 -0.53044903
17.512913 -9.7035704 1.7516562
2.6934896 -1.4930257 -0.48776269
27.884159 -15.462804 3.9149311
3.0724809 -1.7045062 -0.43141752
4.3003893 -2.388653 -0.25780693
5.2468576 -2.9167659 -0.10478425
1.9569358 -1.0919021 -0.60046023
2.1508174 -1.2005737 -0.56867629
9.6902494 -5.4112587 0.58166188
2.385798 -1.3328309 -0.53121227
17.512012 -9.7871323 1.7551423
2.6811025 -1.4990318 -0.48651123
26.963682 -15.07567 3.7930617
3.073442 -1.7190969 -0.43239245
4.2776661 -2.396589 -0.25696957
5.2401333 -2.9370186 -0.10485406
1.9564799 -1.1006209 -0.6014955
2.1413081 -1.2055806 -0.56732661
9.6921864 -5.45681 0.58291793
2.4033687 -1.353676 -0.53617334
17.508987 -9.8658075 1.75828
2.6792955 -1.5103215 -0.48713696
26.216608 -14.78436 3.6955662
3.0774944 -1.7362025 -0.43385491
42.726093 -24.104397 7.7697883
4.2449288 -2.3977544 -0.25550416
5.2333307 -2.9572599 -0.10492387
1.9593475 -1.1112556 -0.60356599
2.1305189 -1.2088281 -0.56552702
9.6626577 -5.4846931 0.58228987
2.3883853 -1.3562405 -0.53388357
17.460585 -9.918992 1.7568854
2.6811428 -1.523101 -0.48838848
26.295151 -14.943794 3.713603
3.0648174 -1.742474 -0.43287995
46.41581 -26.400005 8.4574738
4.2473683 -2.4177458 -0.25613219
5.2334013 -2.9814489 -0.1051333
1.9573292 -1.1187056 -0.60408366
2.1296694 -1.2181927 -0.56642681
9.6434536 -5.5183887 0.58228987
2.3804669 -1.362203 -0.53312039
17.434511 -9.9807987 1.7575827
2.6860945 -1.5383408 -0.49026567
26.118813 -14.964438 3.6960537
3.0621607 -1.7551357 -0.43336743
4.2458324 -2.4365339 -0.25655088
5.2125578 -2.9937229 -0.10492387
1.9450427 -1.1207089 -0.6014955
2.1422858 -1.2353542 -0.57092583
9.6275921 -5.5540128 0.58249921
2.385901 -1.3763902 -0.53541011
17.506554 -10.103341 1.7683899
2.6807082 -1.5477077 -0.49026567
26.39646 -15.246147 3.7428517
3.0560155 -1.7658139 -0.43336743
4.2373013 -2.4513397 -0.25655088
5.1916933 -3.0058885 -0.10471445
1.9377778 -1.1255509 -0.60046023
2.1396456 -1.2438041 -0.57137573
9.6323185 -5.6016421 0.58396471
2.386173 -1.3876709 -0.53655493
17.47118 -10.164388 1.7683899
2.665046 -1.5510938 -0.48838848
26.754799 -15.577915 3.8013489
3.0601251 -1.7824655 -0.43482983
4.2183671 -2.460079 -0.25592285
5.2053475 -3.0381043 -0.10520311
1.9521751 -1.1430454 -0.6061542
2.1218402 -1.2433833 -0.5677765
9.6127062 -5.6352315 0.58396471
2.3813148 -1.3959919 -0.53655493
17.49403 -10.259581 1.7743167
2.6596155 -1.5603873 -0.48838848
26.53933 -15.576759 3.7784374
3.0573082 -1.7951467 -0.43531734
4.1994228 -2.4687154 -0.25529483
5.1947107 -3.0562558 -0.10520311
1.9515009 -1.151817 -0.60718954
2.115809 -1.2497911 -0.56732661
9.568903 -5.6545258 0.58249921
2.3764272 -1.4042957 -0.53655493
17.523283 -10.359114 1.7809405
2.6643541 -1.5756944 -0.49026567
26.372036 -15.602592 3.7623508
3.0476065 -1.8037853 -0.43482983
4.2113991 -2.4955773 -0.25655088
5.1908903 -3.0784507 -0.10534272
1.9507889 -1.1605974 -0.60822481
2.12148 -1.2631508 -0.57002604
9.590291 -5.7124238 0.58501136
2.3681376 -1.410573 -0.5357917
17.401438 -10.369223 1.7722249
2.6656249 -1.5890313 -0.49151716
26.464035 -15.781993 3.7833121
3.0412915 -1.8144126 -0.43482983
37.720978 -22.512991 6.9575801
45.617188 -27.236485 10.327347
4.2095208 -2.5143595 -0.25696957
5.1492186 -3.0780826 -0.10471445
1.9285009 -1.1564709 -0.60253078
2.1320961 -1.2795737 -0.5740751
9.5565929 -5.7376413 0.58417404
2.3631992 -1.4188309 -0.5357917
17.450537 -10.481195 1.7809405
2.6634481 -1.6003611 -0.49214289
22.567074 -13.565028 3.2329502
3.0519516 -1.8352476 -0.43726721
37.198677 -22.377737 6.8756084
4.2041407 -2.5310984 -0.2571789
5.1692724 -3.1146142 -0.10534272
1.9327189 -1.1681921 -0.60511893
2.1309516 -1.2890254 -0.57497495
9.5809345 -5.7978497 0.58689547
2.3615916 -1.4291041 -0.53655493
17.413845 -10.542046 1.7809405
2.6527767 -1.6065787 -0.49120426
22.536564 -13.654004 3.2353876
3.0557122 -1.8520634 -0.43872967
37.393978 -22.673365 6.9262929
4.1986947 -2.5478303 -0.25738826
5.165206 -3.1367915 -0.10548234
1.9302793 -1.1759366 -0.6056366
2.1098001 -1.2863116 -0.57047588
9.582119 -5.8420658 0.58815157
2.359941 -1.4393836 -0.53731817
17.424562 -10.631823 1.7858212
2.6488388 -1.616858 -0.49151716
22.912313 -13.991227 3.2963221
3.056005 -1.8668579 -0.43970463
37.072464 -22.646894 6.8806143
4.1999989 -2.5687234 -0.25801629
5.1615992 -3.1580772 -0.10562197
1.9327478 -1.1867106 -0.60770714
2.1105044 -1.2963607 -0.57182562
9.5412483 -5.8629303 0.58689547
2.358247 -1.4496688 -0.53808141
2.6535583 -1.6318417 -0.49339435
22.432959 -13.800849 3.2339251
3.036273 -1.8686581 -0.43775472
36.999912 -22.780306 6.8818655
4.1676521 -2.5679693 -0.25655088
5.1369267 -3.1676784 -0.10534272
1.9238731 -1.1900643 -0.6061542
2.1175652 -1.3109003 -0.57497495
9.5489235 -5.9113588 0.58857024
2.3467503 -1.4533464 -0.53655493
2.6478457 -1.6410942 -0.49339435
22.563484 -13.989952 3.2597616
3.0297318 -1.8792454 -0.43775472
37.092037 -23.007002 6.9131527
4.1824169 -2.5972524 -0.25801629
5.1467776 -3.1973588 -0.10576159
1.9180679 -1.1957508 -0.6056366
2.1297417 -1.3282274 -0.57947397
9.5180645 -5.9383111 0.58794218
2.3449943 -1.4636083 -0.53731817
17.483158 -10.916206 1.8032522
2.6507671 -1.6550969 -0.4949587
22.06912 -13.784962 3.194927
3.0369506 -1.8976974 -0.43970463
34.569305 -21.60969 6.4569898
4.1703944 -2.6089888 -0.25780693
5.1389747 -3.217427 -0.10583139
1.9202149 -1.2068847 -0.60770714
2.1196773 -1.3332826 -0.57812428
9.5131416 -5.9837909 0.5889889
2.3429372 -1.4742843 -0.53808141
17.503735 -11.018423 1.8095275
2.6377063 -1.6610525 -0.49370724
22.136955 -13.945782 3.212476
3.0296416 -1.9093443 -0.43970463
37.103603 -23.383476 6.9463172
4.1502113 -2.6185882 -0.2571789
5.1237664 -3.2341061 -0.10576159
1.9159905 -1.2135804 -0.60770714
2.097137 -1.328831 -0.57317531
9.5056915 -6.0255151 0.58982629
2.3477247 -1.4887621 -0.54037106
17.44161 -11.064512 1.8070872
2.6305156 -1.6687319 -0.49339435
21.896168 -13.895728 3.1842027
3.0333486 -1.9257643 -0.44116706
37.081779 -23.550974 6.9575801
4.144876 -2.6344788 -0.25738826
5.1326928 -3.2648506 -0.10618044
1.9184698 -1.2240839 -0.60977769
2.089201 -1.3340454 -0.57227552
9.4610367 -6.0436077 0.58836091
2.3427749 -1.4965392 -0.54037106
17.488768 -11.175934 1.8158028
2.6313319 -1.68216 -0.49464583
21.880972 -13.993464 3.1890771
3.0132306 -1.9277825 -0.43921715
4.1423817 -2.6532402 -0.25780693
5.1044297 -3.2719557 -0.10583139
1.9206851 -1.2349523 -0.61184824
2.0943642 -1.3476572 -0.57497495
9.4633932 -6.0917311 0.58982629
2.3243303 -1.496207 -0.53731817
17.483152 -11.258486 1.8192888
2.6304259 -1.6945442 -0.49558446
21.922098 -14.127827 3.202239
3.0131569 -1.9425913 -0.4401921
33.410412 -21.54805 6.2968011
4.1297393 -2.6655178 -0.25759763
5.0929775 -3.2897532 -0.10583139
1.9066348 -1.2353462 -0.60874242
2.0929174 -1.35708 -0.57587475
9.4521265 -6.1312475 0.59045434
2.3240345 -1.507516 -0.538463
17.477173 -11.341136 1.8227752
2.6294658 -1.7069426 -0.49652308
21.686188 -14.083176 3.1749406
3.0163455 -1.959586 -0.44165453
33.381367 -21.694685 6.3055611
4.1572433 -2.7038739 -0.25990039
5.084815 -3.3096931 -0.1059012
1.9071639 -1.2451626 -0.6102953
2.0914302 -1.3665093 -0.57677454
9.4574146 -6.1816883 0.59212905
2.3236883 -1.5188417 -0.53960788
17.477499 -11.428245 1.8269587
2.6152256 -1.7107038 -0.4949587
21.494045 -14.065309 3.1539788
3.0194521 -1.9766266 -0.44311696
33.341789 -21.834883 6.3124442
4.1277347 -2.7052312 -0.25864434
5.0899525 -3.3383894 -0.10625025
1.9044199 -1.2528741 -0.61081296
2.0768816 -1.3673717 -0.5740751
9.4190998 -6.2036781 0.59108233
2.3282099 -1.5334231 -0.54189759
17.390915 -11.458488 1.8220779
2.6174853 -1.725258 -0.49652308
21.421616 -14.124952 3.1505666
3.0025916 -1.9805963 -0.44165453
23.867441 -15.749635 4.5290914
23.754286 -15.680917 5.5326982
4.1282663 -2.726227 -0.25927237
5.0982881 -3.3693671 -0.10666911
1.9161366 -1.2701879 -0.61598933
2.0753438 -1.3767676 -0.57497495
9.3874025 -6.2298932 0.59045434
2.3228431 -1.5415409 -0.54189759
17.423849 -11.567611 1.8297477
2.6213198 -1.7409413 -0.49840027
21.355644 -14.188655 3.148129
2.9857404 -1.9844725 -0.4401921
33.293823 -22.137115 6.332468
4.108748 -2.7339823 -0.25864434
23.569021 -15.688886 6.5366278
5.0598645 -3.3694088 -0.10611063
23.491171 -15.648899 7.5632105
1.9165108 -1.2800877 -0.61754227
2.0737655 -1.3861694 -0.57587475
9.3921633 -6.2803855 0.59212905
2.31092 -1.5452743 -0.54037106
17.406548 -11.64387 1.832188
2.634927 -1.7632643 -0.50215465
21.530331 -14.413301 3.1812778
2.9919903 -2.0037191 -0.44214204
33.446102 -22.407124 6.3762698
4.0991797 -2.7483079 -0.25864434
5.0480723 -3.3870506 -0.10611063
1.9024144 -1.2802981 -0.61443645
2.0786123 -1.3999312 -0.57857412
9.3834352 -6.3220601 0.59296644
2.3087683 -1.5555253 -0.54113436
17.273275 -11.6422 1.8224266
2.6254807 -1.7702422 -0.50152892
21.601671 -14.57051 3.1993141
2.9915597 -2.0185921 -0.44311696
33.197407 -22.4088 6.3437314
4.1193514 -2.7827239 -0.26052842
5.0428452 -3.4091308 -0.10625025
1.891538 -1.2825943 -0.6123659
2.0721006 -1.4060843 -0.57812428
9.4009686 -6.3816981 0.59547853
2.3130703 -1.5701911 -0.54342401
17.074299 -11.594971 1.8056926
2.5964096 -1.7638556 -0.49714881
19.511522 -13.260017 2.8965909
2.9844952 -2.0290225 -0.44311696
32.945843 -22.406786 6.3105669
4.1129155 -2.7993338 -0.26073778
5.0573578 -3.4447241 -0.10680873
1.8932042 -1.2938787 -0.61443645
2.0639622 -1.4111091 -0.57722449
9.4214973 -6.4437904 0.59820002
2.3105404 -1.5808758 -0.54418731
16.877138 -11.55169 1.7893074
2.5931869 -1.775592 -0.49777454
19.429085 -13.30337 2.8912284
2.9773946 -2.039428 -0.44311696
32.981495 -22.599812 6.332468
4.0696878 -2.7917933 -0.25864434
5.0189223 -3.444253 -0.10625025
1.8934495 -1.3037661 -0.61598933
2.055567 -1.4164528 -0.57632464
9.3857899 -6.4675727 0.59736264
2.3033917 -1.5878168 -0.54380566
16.716976 -11.527965 1.7765826
2.5951033 -1.7902417 -0.49933887
19.30994 -13.32601 2.8807478
2.960098 -2.04356 -0.44165453
4.0599179 -2.8059816 -0.25864434
5.0068693 -3.4617517 -0.10625025
1.8952361 -1.3147721 -0.61805987
2.0508587 -1.4232614 -0.57632464
9.3483915 -6.4900446 0.59642065
2.2929976 -1.5924881 -0.54266083
16.506464 -11.468021 1.7584542
2.5891521 -1.7988378 -0.49933887
19.161322 -13.317464 2.8651483
2.9565649 -2.0556314 -0.44214204
4.050591 -2.8194296 -0.25864434
4.9849091 -3.4723499 -0.10604082
1.8797804 -1.3133049 -0.61443645
2.0618491 -1.441578 -0.58082366
9.2913103 -6.4985976 0.59422249
2.2877042 -1.600083 -0.54266083
16.347544 -11.438171 1.7455553
2.5893307 -1.8123952 -0.50059032
19.143988 -13.404764 2.8695359
2.9591265 -2.0727725 -0.44360444
4.0603471 -2.8473122 -0.25990039
4.9793062 -3.4943235 -0.10618044
1.8720254 -1.3176347 -0.61340117
2.053618 -1.4465221 -0.57992387
9.2783642 -6.5378933 0.59485054
2.2885242 -1.6125823 -0.54418731
16.160955 -11.391852 1.7298672
2.5813742 -1.8202844 -0.50027746
19.03706 -13.429171 2.8605175
2.9583611 -2.0876672 -0.44457942
4.0666962 -2.8729925 -0.26094711
4.9834065 -3.5232275 -0.10652949
1.8752936 -1.3297484 -0.61598933
2.0421991 -1.4491708 -0.57812428
9.2419739 -6.5582237 0.59390849
2.2924867 -1.6273795 -0.54647696
15.997631 -11.360522 1.7166195
2.5733941 -1.82814 -0.49996459
17.787819 -12.641142 2.6794198
2.9413481 -2.09108 -0.44311696
4.0436254 -2.8779056 -0.26010972
4.9716954 -3.5397339 -0.10652949
1.8722125 -1.3374093 -0.61650699
2.0405533 -1.4582011 -0.57902408
9.1865311 -6.5672131 0.59181505
2.2899859 -1.6376559 -0.5472402
15.831486 -11.325873 1.7030232
2.5737441 -1.841261 -0.50121611
17.072643 -12.218307 2.5777805
2.9279413 -2.0962 -0.44214204
4.0600333 -2.909915 -0.26178449
4.9723086 -3.5663905 -0.10680873
1.8693355 -1.3447385 -0.6170246
2.0449402 -1.4721464 -0.58172351
9.1554461 -6.5934043 0.59129167
2.276577 -1.6395042 -0.54533213
15.577221 -11.222252 1.6796654
2.567301 -1.8502338 -0.50121611
17.060484 -12.299883 2.5824115
2.9173863 -2.1040852 -0.44165453
4.033658 -2.9123776 -0.26073778
4.9338956 -3.5649872 -0.10625025
1.8630657 -1.3501221 -0.61650699
2.0382113 -1.4781314 -0.58127356
9.2035074 -6.676928 0.59589726
2.2803748 -1.6543581 -0.54762185
15.431531 -11.199322 1.6681609
2.564024 -1.8615052 -0.50184184
16.933926 -12.298701 2.5697372
2.9164479 -2.1189234 -0.44262949
4.0299282 -2.931139 -0.26115644
4.9408226 -3.5963097 -0.10666911
1.8536607 -1.3532 -0.61495411
2.0409071 -1.4909848 -0.58352309
9.2414207 -6.7537942 0.59987479
2.290437 -1.673892 -0.55143803
15.369824 -11.236656 1.6657206
2.5591047 -1.87161 -0.50215465
16.932545 -12.388212 2.5760744
2.9154413 -2.1337805 -0.44360444
4.0196719 -2.9451885 -0.26115644
4.9346895 -3.6182642 -0.10680873
1.8582639 -1.366529 -0.61805987
2.0294123 -1.4934796 -0.58172351
9.2049208 -6.7765393 0.59903741
2.2893231 -1.6853689 -0.55258286
15.234251 -11.219351 1.6552618
2.5477848 -1.8770168 -0.50121611
16.876417 -12.43782 2.5741246
2.9143665 -2.1486561 -0.44457942
4.0286508 -2.9734344 -0.26241252
4.9220295 -3.6354675 -0.10680873
1.8550347 -1.3741572 -0.61857754
2.0241866 -1.5005546 -0.58172351
9.2229223 -6.839561 0.60175884
2.2786953 -1.6898414 -0.55143803
15.086185 -11.191739 1.6434087
2.5523214 -1.8941391 -0.50340617
16.92853 -12.567651 2.5887487
2.8972862 -2.1517146 -0.44311696
4.0086303 -2.9803293 -0.26178449
4.8900571 -3.6383023 -0.10638987
1.845582 -1.3771582 -0.6170246
2.025182 -1.5122751 -0.58352309
9.1989918 -6.8717136 0.60175884
2.2617729 -1.6895608 -0.54876673
14.919348 -11.148919 1.6294638
2.5504408 -1.9065852 -0.50434476
16.840044 -12.59338 2.5819242
2.8897576 -2.1618149 -0.44311696
4.0109911 -3.0038817 -0.26262185
4.8965292 -3.6697404 -0.10680873
1.8376749 -1.3812705 -0.61598933
2.0261202 -1.5240208 -0.58532268
9.1877165 -6.9133892 0.60259628
2.2558613 -1.6974454 -0.54876673
14.794382 -11.136226 1.6200509
2.5358796 -1.9095349 -0.50278044
17.487293 -13.172835 2.688194
2.8885357 -2.1766677 -0.44409195
28.459427 -21.453505 5.6447821
4.0036702 -3.0202699 -0.26283121
4.8900738 -3.6916296 -0.10694835
1.8390028 -1.3923413 -0.61805987
2.0207882 -1.5310838 -0.58532268
9.1730785 -6.9526572 0.60322434
2.2483578 -1.7041237 -0.54838508
14.641109 -11.101128 1.6075004
2.5307724 -1.919569 -0.5030933
16.67581 -12.653041 2.5702245
2.8935692 -2.1963387 -0.44604182
28.189283 -21.404587 5.6059861
3.999464 -3.0390601 -0.26324987
4.8898916 -3.7183599 -0.10722758
1.8341315 -1.3987521 -0.61805987
1.9983907 -1.5251235 -0.58037376
9.1678028 -6.9991784 0.60448033
2.2564397 -1.7226838 -0.55181968
14.535766 -11.101377 1.6001794
2.5146384 -1.9211959 -0.50121611
17.483227 -13.362102 2.7018437
2.8732693 -2.1967802 -0.44409195
28.152054 -21.531656 5.6134953
3.9729712 -3.0408635 -0.26220316
4.8768826 -3.7354064 -0.10722758
1.8353661 -1.4098532 -0.62013048
2.005415 -1.5415913 -0.58397299
9.1338158 -7.0238318 0.60385227
2.2457438 -1.7269593 -0.5506748
14.468501 -11.130182 1.5970418
2.5141788 -1.9347805 -0.50246757
17.546587 -13.507812 2.7189052
2.8530014 -2.1971068 -0.44214204
3.9591687 -3.052274 -0.26199383
4.8511477 -3.7426348 -0.10694835
1.836545 -1.4209799 -0.62220097
2.0061848 -1.5533544 -0.58577257
9.0997686 -7.0483336 0.60322434
2.2334936 -1.7299789 -0.54914832
14.404363 -11.161095 1.5942529
2.5183387 -1.9520161 -0.50465763
17.254602 -13.379221 2.680882
2.8610003 -2.2192192 -0.44457942
28.001051 -21.727667 5.6134953
3.9705758 -3.0832253 -0.26345924
4.8443694 -3.7644536 -0.10708796
1.8209074 -1.4190695 -0.61857754
2.0099707 -1.5675383 -0.58847201
9.1317997 -7.1242824 0.60699248
2.2258933 -1.7365572 -0.54876673
14.264793 -11.132854 1.583097
2.5208519 -1.9680887 -0.50653487
24.445118 -19.091747 3.8084173
2.8532362 -2.2291925 -0.44457942
28.018419 -21.898264 5.632267
3.9660819 -3.1019881 -0.26387793
4.8374987 -3.7862711 -0.10722758
1.8159429 -1.4254169 -0.61857754
2.0106165 -1.5793599 -0.59027159
9.1194391 -7.165987 0.60782987
2.2306237 -1.7528075 -0.55143803
14.050411 -11.044675 1.563574
2.5046499 -1.9695497 -0.50465763
24.400169 -19.194145 3.8118296
2.8547974 -2.2465041 -0.44604182
27.926287 -21.983713 5.6291385
3.9520917 -3.1133413 -0.26366857
4.8242526 -3.8031342 -0.10722758
1.8139869 -1.4341433 -0.61961281
2.0050912 -1.5863686 -0.59027159
