# .PCD v0.7 - Point Cloud Data file format
VERSION 0.7
FIELDS x y z
SIZE 4 4 4
TYPE F F F
COUNT 1 1 1
WIDTH 1504
HEIGHT 1
VIEWPOINT 0 0 0 1 0 0 0
POINTS 1504
DATA ascii
12.345119 6.3336363 2.1975915
12.287929 6.3015862 2.6843011
4.1803265 2.1428668 -0.24618836
35.598831 18.240362 9.2346916
5.2362795 2.6818457 -0.10268996
1.9374855 0.98890251 -0.58286053
2.135318 1.0889392 -0.5533796
10.039446 5.1175604 0.59055901
2.3560605 1.2009908 -0.51403946
13.560998 6.9096737 1.3315654
2.6526661 1.3510195 -0.47149354
12.577907 6.403235 1.7329822
2.9934895 1.5232854 -0.41240588
12.346021 6.279767 2.1938372
12.292349 6.2497592 2.6804848
4.1877813 2.1282606 -0.24618836
35.575409 18.071865 9.2121964
5.2456079 2.6635523 -0.10268996
1.9426497 0.98300517 -0.5833782
2.1460629 1.0849954 -0.55517924
10.053685 5.0806808 0.59034967
2.3654954 1.1954151 -0.51518428
2.6344426 1.3301765 -0.46742624
12.58069 6.3494492 1.7303011
3.0023329 1.5146159 -0.41289338
12.353756 6.2295141 2.1913342
12.289546 6.1944385 2.6751423
4.1916175 2.1118333 -0.24597903
35.551243 17.903755 9.1897011
5.2477298 2.6416276 -0.10255034
1.9581558 0.98228276 -0.58700162
2.1359 1.0705117 -0.55158001
10.064211 5.0419841 0.58993095
2.3784292 1.1915492 -0.51709241
2.6390703 1.3209717 -0.46742624
12.563717 6.2859635 1.7249388
2.9969494 1.4987983 -0.41143093
12.357759 6.1775174 2.1882055
12.298797 6.1453676 2.6724708
4.1989641 2.0971878 -0.24597903
35.613525 17.779539 9.1897011
5.256917 2.623297 -0.10255034
1.9546535 0.97200024 -0.58493102
2.1378784 1.0621828 -0.55113012
10.031665 4.9819465 0.58700013
2.3685076 1.1762532 -0.51403946
14.253656 7.0755711 1.3922259
2.6383562 1.3091182 -0.46648762
12.555351 6.2270722 1.7207953
2.991492 1.4830368 -0.4099685
12.363316 6.126452 2.1853898
12.318416 6.1015253 2.6720893
4.1883607 2.0736551 -0.24493231
35.504204 17.570419 9.1456108
5.2588735 2.6013832 -0.10241073
1.9597675 0.96602595 -0.58544868
2.1468182 1.0572962 -0.5524798
9.9988203 4.9222016 0.58406937
2.3620305 1.1627764 -0.51174974
14.314016 7.043376 1.395712
2.6500008 1.3033873 -0.46773914
12.536039 6.1630607 1.7151892
3.0037761 1.4760896 -0.41094348
12.349166 6.0658374 2.1791322
12.322017 6.0498328 2.668273
4.2135019 2.0678244 -0.24597903
35.477848 17.40346 9.1231155
5.2535582 2.5759659 -0.10213149
1.9544491 0.95493829 -0.58286053
2.1574998 1.0532169 -0.55427945
9.9863682 4.8750005 0.58239454
2.3678396 1.1553844 -0.51213133
14.342099 6.995111 1.3960607
2.6545339 1.2941296 -0.46773914
12.57532 6.1279631 1.7176267
3.0053415 1.4638561 -0.410456
12.356782 6.0188003 2.1769423
12.311283 5.991323 2.6614041
4.2099185 2.0478609 -0.24535099
35.450756 17.236895 9.1006203
5.2368951 2.5462873 -0.10164282
1.9542931 0.94642556 -0.58182526
2.1574726 1.0443578 -0.5533796
10.021306 4.8488088 0.58344132
2.3789282 1.1505307 -0.51365787
14.373603 6.9484768 1.396758
2.6339118 1.2732838 -0.46335894
12.577697 6.0775933 1.7151892
3.0209045 1.4590611 -0.4119184
12.359925 5.9670448 2.1738136
12.288647 5.9299893 2.652245
4.2094913 2.030417 -0.24493231
35.50771 17.119267 9.1006203
5.2421465 2.5262587 -0.10157301
1.9713527 0.94663012 -0.58596635
2.1452925 1.0292335 -0.54933053
10.002153 4.7965231 0.58134788
2.3809597 1.1417869 -0.51327622
14.396567 6.9007702 1.396758
2.6365592 1.2632277 -0.46304604
12.566611 6.0182157 1.7108021
3.0152359 1.4433655 -0.410456
12.361079 5.9144821 2.170372
12.295104 5.8802776 2.6491923
4.2057414 2.0105433 -0.24430427
35.391426 16.911188 9.0556297
5.2509336 2.5079434 -0.10157301
1.9606897 0.93310207 -0.58182526
2.1611917 1.0275958 -0.5524798
9.9863644 4.74615 0.57946378
2.3742919 1.1284132 -0.51098651
14.449361 6.8641567 1.3995469
2.6498752 1.2582525 -0.4646104
12.56602 5.9641018 1.7078772
3.0130813 1.4294287 -0.40948102
12.354877 5.8585992 2.165679
12.290717 5.8255548 2.6438496
4.2019033 1.9907203 -0.24367623
35.386837 16.757511 9.0394335
5.2668858 2.4930224 -0.10171262
1.9726715 0.93037212 -0.58441341
2.1577141 1.0167234 -0.55068022
10.013714 4.7163658 0.58009177
2.3764403 1.1192813 -0.51060492
14.541732 6.8459282 1.4061707
2.6596131 1.2515188 -0.46554902
12.565207 5.9100599 1.7049522
3.021646 1.4205906 -0.4099685
12.355586 5.8061976 2.1622374
12.300317 5.7776051 2.6415598
4.2232904 1.9828303 -0.24451362
35.395721 16.610714 9.0268364
5.2212434 2.4491444 -0.10066548
1.9636559 0.91775531 -0.58078998
2.1630154 1.0100102 -0.55113012
10.015636 4.6746273 0.57925445
2.3785534 1.1101493 -0.51022327
14.605265 6.8136539 1.4100057
2.6621749 1.2413932 -0.46523616
12.564169 5.8561025 1.7020274
3.0265861 1.4100351 -0.4099685
12.348916 5.7505279 2.1575444
12.309729 5.7296653 2.6392701
4.2084551 1.9579669 -0.24325755
35.38987 16.457483 9.0106401
5.2297616 2.4309025 -0.10066548
1.9668479 0.91089475 -0.58078998
2.1612217 0.99999923 -0.54978037
10.017392 4.6329279 0.57841706
2.3895423 1.1051357 -0.51174974
14.487898 6.6974163 1.3964093
2.6557326 1.2271221 -0.46335894
12.57192 5.8063798 1.7003212
3.0242808 1.3961329 -0.40899354
12.350976 5.6991134 2.1544156
12.297565 5.6718583 2.632401
4.2152648 1.9432638 -0.24325755
35.447098 16.333857 9.0106401
5.2454801 2.4159799 -0.1008051
1.9752825 0.90644115 -0.58234286
2.1611567 0.99082422 -0.54888058
10.018976 4.5912781 0.57757968
2.3951697 1.0976063 -0.51213133
14.565527 6.6716971 1.4016386
2.6635921 1.2194881 -0.46398467
12.496443 5.7186828 1.6874031
3.0327458 1.3872198 -0.40948102
12.365406 5.6534982 2.1534772
12.281578 5.6125727 2.6247687
4.2002215 1.9185807 -0.24200147
5.2466054 2.3943326 -0.10066548
1.9907448 0.90513819 -0.58596635
2.1646023 0.98327374 -0.54888058
9.969471 4.5265536 0.57381147
2.3936236 1.0868044 -0.51098651
14.661302 6.6537452 1.4086111
2.6714311 1.2118145 -0.4646104
12.483784 5.6602745 1.6830157
3.019489 1.36843 -0.40704364
12.356277 5.5972552 2.1484711
12.297513 5.5680575 2.6240056
4.2214503 1.9104943 -0.24283887
36.888367 16.686749 9.347167
5.2549295 2.3760076 -0.10066548
1.9815626 0.89262897 -0.58234286
2.1715753 0.97731185 -0.54978037
9.9633551 4.4818916 0.57255542
2.3902409 1.0752201 -0.50946003
14.749852 6.6319504 1.4148864
2.6792481 1.2041022 -0.46523616
12.48355 5.6077127 1.6803347
3.0206261 1.3562548 -0.40655616
12.354113 5.5443873 2.1447167
12.324041 5.5283074 2.6255319
4.2135139 1.8892088 -0.24200147
5.2412925 2.3478389 -0.10024662
1.9740815 0.88098335 -0.57923704
2.1714141 0.96813798 -0.54888058
9.964344 4.4405837 0.57171804
2.3832202 1.0620757 -0.50717038
14.774732 6.5812302 1.4150605
2.679826 1.1931349 -0.4646104
12.506674 5.5657196 1.6808221
3.0362234 1.3505452 -0.40801859
12.358952 5.4948058 2.1422138
12.318146 5.4740958 2.6201892
4.2310338 1.879357 -0.24262951
5.2275229 2.3197939 -0.099827766
1.977145 0.87408662 -0.57923704
2.1801276 0.96291596 -0.55023032
9.965168 4.3993192 0.57088071
2.3958936 1.0577142 -0.50907844
14.82496 6.5416775 1.4176753
2.676744 1.1805865 -0.46335894
12.493331 5.5076118 1.6764348
3.0372865 1.3383369 -0.40753111
12.350936 5.4396968 2.1375208
12.295853 5.4128675 2.611412
4.2375689 1.8645753 -0.24262951
5.2502327 2.3079715 -0.100107
1.9784144 0.86640418 -0.57871938
2.1620517 0.94592619 -0.54483151
9.9036074 4.330894 0.56648445
2.3977723 1.0485572 -0.50869679
14.893343 6.5098419 1.422033
2.6754186 1.1688625 -0.46242031
12.49429 5.4560213 1.6739975
3.0492167 1.3309038 -0.4085061
12.358987 5.3918085 2.1356435
12.298477 5.3628488 2.6079774
4.2257419 1.8417928 -0.2415828
5.2582579 2.289629 -0.100107
2.0009212 0.86795092 -0.58441341
2.1671286 0.93914771 -0.54528135
9.8966684 4.2867785 0.56522834
2.40502 1.0417432 -0.50946003
14.958032 6.476018 1.4260423
2.6849215 1.1618693 -0.46335894
12.496857 5.4052906 1.6718037
3.0246904 1.3076472 -0.40460625
12.363227 5.3423629 2.1331406
12.317119 5.3198948 2.6079774
4.2248111 1.8238636 -0.24116412
5.2441835 2.2617586 -0.09968815
1.9950643 0.85714757 -0.58182526
2.1793473 0.93542087 -0.54753089
9.9262581 4.2585034 0.56606579
2.3924043 1.0263749 -0.50602549
15.031816 6.4457541 1.430923
2.6925917 1.1540469 -0.46398467
12.495579 5.353034 1.6691227
3.0438359 1.3033314 -0.40655616
12.341847 5.2820783 2.1262577
12.411427 5.3092942 2.6240056
4.2384977 1.8122447 -0.2415828
5.2557235 2.2450111 -0.099757954
1.9873781 0.84564036 -0.57871938
2.1861866 0.92933208 -0.54843074
9.9484129 4.2269545 0.56648445
2.3995857 1.0195535 -0.50678873
15.032217 6.3839011 1.4288312
2.6929674 1.1430967 -0.46335894
12.492258 5.3000822 1.6661978
3.0520215 1.2942489 -0.40704364
12.349298 5.2343359 2.1243804
14.66784 6.2140551 3.0964484
4.2374411 1.7943244 -0.24116412
5.2377453 2.2157428 -0.099269286
1.9830514 0.83604294 -0.57664889
2.189256 0.92207772 -0.54843074
9.9752626 4.1993628 0.56721711
2.4047635 1.0123518 -0.50717038
13.20401 5.555881 1.2532996
2.6912804 1.1318632 -0.46242031
12.491467 5.2509313 1.6637604
3.063617 1.2871974 -0.40801859
14.623199 6.1380219 3.0827103
4.2360005 1.7771728 -0.24074543
5.2561297 2.2030008 -0.099478714
2.0020018 0.83581448 -0.58130759
2.1798708 0.90917951 -0.54528135
9.9843311 4.1622095 0.56690317
2.4191551 1.0084832 -0.50946003
13.221485 5.508986 1.2531252
2.6788025 1.1156275 -0.45960453
12.568366 5.2317042 1.67156
3.0534294 1.2703944 -0.40606871
14.619156 6.0763869 3.0773675
4.2348008 1.7593093 -0.24032672
5.2637882 2.1846387 -0.099478714
1.997766 0.82586938 -0.57923704
2.1812305 0.90082043 -0.54483151
9.9397211 4.1029482 0.56355363
2.4063282 0.99329144 -0.50602549
13.236949 5.4612842 1.2527766
2.6954641 1.1115409 -0.46179458
12.762741 5.2604237 1.694959
3.0468323 1.255192 -0.40460625
12.570589 5.1760917 2.1531644
14.618489 6.016356 3.072788
4.2446103 1.746037 -0.24053608
5.2602835 2.1616917 -0.099269286
2.0042124 0.82035393 -0.58027232
2.1861651 0.89393902 -0.54528135
9.9317961 4.0591612 0.56229758
2.4043286 0.98265791 -0.50488061
13.230112 5.4044938 1.2503363
2.6956701 1.1006324 -0.46116886
13.325054 5.4378581 1.7671057
3.0511956 1.2445481 -0.40460625
12.745893 5.196311 2.1800709
14.621222 5.9578867 3.0689721
4.2358818 1.7251821 -0.23969871
5.2677965 2.1433177 -0.099269286
1.9927408 0.80754793 -0.57613122
2.1946914 0.88849568 -0.5466311
9.9570141 4.0289607 0.56292558
2.4022844 0.97204942 -0.50373578
13.296916 5.3777103 1.2548684
2.710484 1.0956571 -0.46304604
13.045787 5.2708406 1.72762
3.0555203 1.233892 -0.40460625
12.822569 5.1754494 2.1900828
13.498541 5.4455457 2.8293159
4.2604003 1.7178574 -0.24074543
5.2715373 2.1234212 -0.099199481
1.9955473 0.80058748 -0.57613122
2.2032063 0.88300365 -0.54798079
9.9450598 3.983784 0.5614602
2.4165978 0.96803874 -0.50602549
13.437684 5.3801355 1.2663729
2.6904509 1.0766476 -0.4589788
13.344261 5.337327 1.7646682
3.0782418 1.2305866 -0.40704364
12.976301 5.1848936 2.2132351
13.466415 5.3780088 2.8186305
4.2626615 1.7014934 -0.24053608
5.2714863 2.1020453 -0.099059857
2.0126934 0.79932058 -0.58027232
2.1935949 0.87027872 -0.54483151
9.9329138 3.9387355 0.55999482
2.4254372 0.96176773 -0.50717038
13.619379 5.3977928 1.2817123
2.7052109 1.0716164 -0.46085599
13.373885 5.2950954 1.7661307
3.0751357 1.2169116 -0.40606871
13.141271 5.1976986 2.2382646
13.461372 5.3215833 2.8136694
4.2351398 1.6733915 -0.23865199
5.2639122 2.0777566 -0.098780625
2.0082791 0.78946447 -0.57820177
2.2002473 0.86404032 -0.54573131
9.9131374 3.8909013 0.55811071
2.43609 0.95616406 -0.50869679
13.771682 5.4026117 1.2942628
2.7052574 1.060724 -0.46023026
13.898705 5.4468379 1.8329151
3.0571842 1.1974827 -0.40314382
13.284416 5.2007604 2.2595396
13.450615 5.2631116 2.8075638
4.2669959 1.6687831 -0.2401174
5.278584 2.062279 -0.098920241
2.0110228 0.78244889 -0.57820177
2.1959846 0.85353136 -0.54393172
9.9043159 3.8476026 0.55685461
2.419282 0.9398362 -0.50449902
13.864749 5.3833485 1.3012352
2.7163095 1.0541338 -0.46148172
13.503061 5.2374992 1.7783177
3.0650477 1.188238 -0.4036313
13.390904 5.188612 2.2745574
13.492702 5.2253547 2.8125248
4.2541695 1.6466675 -0.23907068
5.2521772 2.030863 -0.098291956
2.0065308 0.77264702 -0.57613122
2.2025883 0.8472594 -0.54483151
9.9139585 3.8115704 0.55664527
2.4207156 0.93068051 -0.50411743
15.713504 6.0381455 1.4727577
2.7125969 1.0418119 -0.46023026
13.966042 5.361063 1.8368149
3.0654697 1.1761103 -0.40314382
13.545421 5.1941781 2.2977097
14.673124 5.6236744 3.0544708
4.2673512 1.6346663 -0.23948936
5.2741756 2.0182331 -0.098571189
2.0037997 0.7635749 -0.57457829
2.2000687 0.83748537 -0.54348177
9.8929462 3.7658811 0.55476117
2.4276192 0.92362171 -0.50488061
15.820151 6.0158372 1.4807761
2.7032917 1.0274236 -0.45804018
13.921575 5.2883158 1.8285278
3.0769796 1.1682217 -0.40411878
13.747246 5.2193489 2.3289967
14.76242 5.5988808 3.0689721
4.2730308 1.6197615 -0.23948936
5.2845798 2.0021477 -0.098641008
2.0136838 0.75930154 -0.57664889
2.2064807 0.8315599 -0.54438156
9.8798637 3.7214711 0.55329579
2.441853 0.91929173 -0.50717038
15.952938 6.0026727 1.4912347
2.7066836 1.0184542 -0.45804018
13.939036 5.2421174 1.8285278
3.0919859 1.1622013 -0.40558121
13.857842 5.2060614 2.34464
14.843397 5.5733552 3.0819471
4.2447209 1.5929502 -0.23760527
5.2840457 1.980882 -0.098501377
2.0234296 0.75532246 -0.57871938
2.2002404 0.82044894 -0.54213208
9.8740768 3.6799881 0.55224901
2.4356897 0.90776163 -0.50526226
16.110922 6.0011988 1.5041338
2.7139244 1.0103787 -0.45866591
14.952601 5.5637984 1.9589281
3.0699759 1.1417131 -0.40216887
14.061089 5.2264833 2.375927
4.2502556 1.5781224 -0.23760527
5.2646794 1.9526907 -0.098012716
2.0278661 0.74892461 -0.57923704
2.2140608 0.81681007 -0.54483151
9.8456354 3.6302998 0.54994625
2.4296327 0.89585841 -0.50335413
16.277592 5.9986658 1.5177301
2.7174349 1.0008986 -0.45866591
14.984969 5.5163732 1.9606342
3.0702164 1.1296198 -0.40168139
14.171949 5.2114544 2.3915703
14.42126 5.3002763 2.9865425
4.2482386 1.5605228 -0.23718657
5.226409 1.9177679 -0.097175002
2.0250244 0.73985201 -0.57768416
2.2205596 0.81041324 -0.54573131
9.8695068 3.600014 0.5505743
2.4364343 0.88871694 -0.50411743
16.440691 5.9936767 1.5309777
2.7190559 0.99073106 -0.45835301
14.983617 5.4565563 1.957953
3.0741408 1.1188965 -0.40168139
14.301435 5.2024741 2.4103425
14.57621 5.2995496 3.0147824
4.2574153 1.5470474 -0.23739593
5.2706652 1.9131596 -0.097873099
2.0294118 0.73343498 -0.57820177
2.2123773 0.79868621 -0.54303187
9.8820143 3.5655384 0.5505743
2.4358282 0.87887341 -0.50335413
16.570219 5.9754558 1.5410879
2.7169228 0.97922361 -0.45741442
14.985765 5.3981614 1.9557593
3.0854981 1.1108493 -0.40265635
14.468205 5.2060213 2.4353721
14.637112 5.2639132 3.0235596
4.2552705 1.5294776 -0.23697723
5.2660189 1.8906941 -0.097663663
2.0392358 0.728948 -0.58027232
2.209646 0.78899336 -0.54168218
9.8755894 3.5243115 0.54952765
2.4425795 0.87168574 -0.50411743
16.624756 5.9296217 1.5442253
2.7240462 0.9710598 -0.45804018
14.959637 5.3298321 1.9499096
3.0893571 1.1000712 -0.40265635
14.66495 5.2190652 2.4654076
4.241765 1.5079234 -0.23593052
37.507881 13.326447 9.1897011
5.2462049 1.8629339 -0.097175002
2.0526965 0.72568828 -0.5833782
2.2105489 0.78062695 -0.54123229
9.8689985 3.4831676 0.54848087
2.4474587 0.86380696 -0.50449902
16.671659 5.8808293 1.5466658
2.7236924 0.96023339 -0.45741442
14.865817 5.2379956 1.9352853
3.0856893 1.0866424 -0.40168139
15.005014 5.2782121 3.0918691
4.2470031 1.4931065 -0.23593052
5.2413559 1.8406328 -0.096965574
2.0388041 0.71278197 -0.57871938
2.2187798 0.77483284 -0.54258198
9.8735504 3.4460711 0.54806215
2.439337 0.85137856 -0.50220931
16.646935 5.8068528 1.5424823
2.7400849 0.95527142 -0.45960453
15.185811 5.2912412 1.9745274
3.0782151 1.0719483 -0.40021896
15.219901 5.2941685 3.1323206
4.2635074 1.4822085 -0.23655853
5.2704177 1.8301964 -0.09738443
2.0339768 0.70313573 -0.57664889
2.2269969 0.76899177 -0.54393172
9.8741922 3.4076729 0.54743415
2.4478617 0.84477913 -0.50335413
16.663336 5.7474046 1.5421337
2.7396677 0.94441396 -0.4589788
15.373103 5.296391 1.9964637
3.0932002 1.0650737 -0.40168139
15.371955 5.286993 3.1597972
4.2762113 1.4699131 -0.23697723
5.2427287 1.8001025 -0.096756138
2.0272787 0.69290692 -0.57406068
2.2315121 0.76184237 -0.54438156
9.8898096 3.3744724 0.54764348
2.4526539 0.83686268 -0.50373578
16.630493 5.6712098 1.5372529
2.7130315 0.92464828 -0.45397288
15.55122 5.2970967 2.0171814
3.1044152 1.056831 -0.40265635
15.966913 5.4324727 2.6712751
15.546452 5.2863903 3.191853
4.2548404 1.4459828 -0.23551181
5.2603431 1.7856464 -0.096965574
2.0351756 0.68768185 -0.57561362
2.224926 0.7509318 -0.54213208
9.8409681 3.3195043 0.544294
2.4574203 0.8289243 -0.50411743
16.627533 5.6054816 1.5351611
2.721859 0.91706389 -0.4549115
15.731407 5.2972646 2.0381432
3.096797 1.0421883 -0.40119389
15.955825 5.3666248 2.6662693
15.66902 5.2671247 3.2132235
4.2598619 1.4311208 -0.23551181
5.2627516 1.7660023 -0.096895754
2.0375636 0.68057305 -0.57561362
2.2256846 0.74254566 -0.54168218
9.8316536 3.2781804 0.54314262
2.456574 0.81909853 -0.50335413
16.63566 5.5436234 1.5341154
2.7306652 0.90943158 -0.45585006
15.908017 5.2949767 2.0586171
3.0891149 1.0276117 -0.39973149
4.2610416 1.4149826 -0.23530249
5.2537007 1.7425833 -0.096616521
2.0344236 0.67164004 -0.57406068
2.2356658 0.73721248 -0.54348177
9.7975111 3.2288406 0.54063052
2.4426367 0.80498862 -0.49991959
16.647339 5.4830303 1.5334182
2.7413287 0.90236408 -0.45710155
16.111198 5.3002129 2.0825036
3.1002259 1.0193032 -0.40070644
43.028065 14.138598 7.17346
44.202717 14.516006 9.0435839
4.2621589 1.3988552 -0.23509313
5.2559509 1.7229865 -0.09654671
2.0312455 0.66273719 -0.57250774
2.2456367 0.73181975 -0.54528135
9.8271523 3.2025232 0.54167718
2.4584992 0.80071253 -0.50259089
16.613331 5.4076157 1.5285373
2.7500973 0.89462346 -0.45804018
16.248535 5.2826033 2.0978591
3.1111407 1.011471 -0.40168139
44.820793 14.545863 9.1595955
4.2594171 1.3815031 -0.23467445
5.2692442 1.7080178 -0.096686333
2.0297551 0.65481091 -0.57147247
2.2517612 0.7255637 -0.5461812
9.8453236 3.1723654 0.5420959
2.4611406 0.79255599 -0.50259089
16.604616 5.3439517 1.5260969
2.7286022 0.87763494 -0.45397288
16.400143 5.2718277 2.1151645
3.1220369 1.0035791 -0.40265635
45.407162 14.569913 9.2695017
4.2829933 1.3734707 -0.23572117
5.252028 1.6832098 -0.096267477
2.0355964 0.64925081 -0.57250774
2.2300165 0.71040344 -0.5403325
9.8296938 3.1294942 0.54063052
2.4637556 0.78438944 -0.50259089
16.595667 5.2803974 1.5236566
2.7409101 0.87157542 -0.45553723
3.1217375 0.99147248 -0.40216887
46.039093 14.604457 9.388566
4.2761011 1.3556374 -0.23509313
5.2731228 1.6696944 -0.09654671
2.0433779 0.64388359 -0.57406068
2.2436357 0.70612437 -0.54303187
9.806262 3.084383 0.53874642
2.4683511 0.77637535 -0.50297254
16.572186 5.2092953 1.5198219
2.7458203 0.86259383 -0.45585006
3.1062384 0.97462738 -0.39973149
46.663059 14.623321 9.5053415
4.2655592 1.3359282 -0.23425576
5.2598338 1.6453089 -0.096197665
2.0474575 0.63732052 -0.57457829
2.2386434 0.69597471 -0.54123229
9.8055258 3.0465758 0.53811836
2.4654217 0.76600629 -0.50182766
16.601685 5.1549559 1.5208677
2.7563612 0.85534632 -0.45710155
3.1020374 0.96142703 -0.3987565
47.263885 14.639672 7.8367414
47.291458 14.639168 9.62288
4.2816453 1.3245711 -0.2348838
5.2579021 1.6245782 -0.096058048
2.0312042 0.62449187 -0.56940192
2.2485108 0.69044363 -0.54303187
9.8199196 3.0134988 0.53832769
2.4699576 0.75797105 -0.50220931
16.539572 5.0724502 1.5135466
2.7574415 0.84513992 -0.45678869
3.1205592 0.95524359 -0.40070644
47.344929 14.483835 7.8417478
4.2938824 1.3119546 -0.23530249
5.2558913 1.6038789 -0.095918424
2.0333717 0.61739832 -0.56940192
2.2471776 0.68145901 -0.54213208
9.8189096 2.975729 0.53769964
2.476346 0.75048399 -0.50297254
16.545736 5.0112157 1.5125006
2.7509215 0.83264744 -0.45522434
34.440613 10.417922 4.4180079
3.139076 0.94893956 -0.40265635
49.467705 14.944589 8.1846523
4.2907877 1.2946494 -0.2348838
5.2614574 1.5855238 -0.095918424
2.0356209 0.60994095 -0.56940192
2.2346075 0.66914022 -0.53853285
9.8292379 2.9414339 0.53769964
2.4884849 0.74421465 -0.50488061
16.575447 4.9539661 1.5135466
2.7615259 0.82482117 -0.45647582
3.1271524 0.93343323 -0.40070644
49.576347 14.788797 8.1940384
4.284018 1.2754955 -0.23425576
5.2784605 1.5705687 -0.09612786
2.0414429 0.60392815 -0.57043719
2.2314382 0.65928942 -0.53718311
9.8279514 2.9037166 0.53707159
2.4797699 0.73218846 -0.50259089
16.565887 4.8881783 1.5111063
2.7530203 0.81182355 -0.45459861
3.1343608 0.9230876 -0.40119389
55.373039 16.307684 9.1426573
4.2692828 1.2549002 -0.23320904
5.2685614 1.5476235 -0.095848612
2.0324123 0.5935486 -0.56733137
2.229871 0.65079355 -0.53628331
9.7996798 2.8582058 0.53497815
2.4804261 0.722978 -0.50220931
16.494852 4.8046947 1.5030879
2.7765589 0.80876845 -0.45804018
34.547817 10.056703 4.4180079
3.1297805 0.91046989 -0.40021896
43.775398 12.726234 7.2203898
4.2657495 1.2385073 -0.23279037
5.2393599 1.5192029 -0.095220335
2.0306568 0.5857352 -0.5662961
2.2433648 0.6462419 -0.53898275
9.8287926 2.8295043 0.53602493
2.4846964 0.71529222 -0.50259089
16.483891 4.7422528 1.5006475
2.7717712 0.79688752 -0.45678869
3.1291234 0.89844441 -0.39973149
4.2854056 1.2280117 -0.23362774
5.2600112 1.5053049 -0.095499568
2.0289726 0.57758582 -0.56526077
2.2381094 0.63627499 -0.53718311
9.8347654 2.7940884 0.5358156
2.4890666 0.70715171 -0.50297254
16.473511 4.6770697 1.4982072
2.7612338 0.78343236 -0.45459861
28.975611 8.2156706 3.6980038
3.1322403 0.88751692 -0.39973149
4.2896657 1.2130463 -0.23362774
5.2575364 1.4847622 -0.095359951
2.0346966 0.57154423 -0.5662961
2.2365639 0.62740642 -0.53628331
9.8093634 2.7517469 0.53393149
2.497191 0.70004809 -0.50411743
16.409159 4.5969601 1.4908861
2.762049 0.77325708 -0.45428574
28.484135 7.9689951 3.6317067
3.14679 0.87978405 -0.40119389
28.330891 7.9207902 4.659245
28.220285 7.8792481 5.6952672
4.2900267 1.1969904 -0.23341838
28.111996 7.8384366 6.7377343
5.2701359 1.4694662 -0.095499568
27.962769 7.7915692 7.7780304
2.0366793 0.56443876 -0.5662961
2.2217298 0.61530566 -0.53223425
9.8189087 2.7174911 0.53393149
2.4920504 0.68923414 -0.50259089
16.25419 4.4924188 1.4753724
2.7722139 0.76619911 -0.45553723
28.969629 8.0013371 3.6902039
3.1382093 0.86617428 -0.39973149
4.2708664 1.1763918 -0.23216233
5.259809 1.4468168 -0.095220335
2.0385394 0.55768222 -0.5662961
2.2445424 0.61319518 -0.53718311
9.7743864 2.668474 0.53100067
2.4905343 0.67993283 -0.50182766
16.343962 4.4589396 1.4821705
2.7767775 0.75703645 -0.45585006
34.030746 9.2714825 4.3307495
3.1412137 0.85521525 -0.39973149
42.246586 11.493981 6.9344277
4.2903652 1.1656666 -0.2329997
5.2493877 1.4242599 -0.094941087
2.0367436 0.54955596 -0.56526077
2.2391427 0.603329 -0.53538352
9.7913551 2.6364131 0.53141934
2.4853096 0.66919267 -0.50030124
16.41522 4.4168777 1.4872255
2.7755878 0.74631375 -0.45522434
33.974716 9.128932 4.3195372
3.1480143 0.84527391 -0.40021896
56.89706 15.266825 9.3303785
4.305984 1.1537839 -0.23362774
5.2466002 1.4038612 -0.094801471
2.0386496 0.54244244 -0.56526077
2.2393517 0.59500819 -0.53493363
9.8082209 2.6042664 0.53183806
2.4914258 0.66152018 -0.50106448
16.413206 4.3549562 1.4856569
2.7800856 0.73712617 -0.45553723
33.952648 8.9960375 4.3127127
3.1586208 0.83631462 -0.40119389
42.451839 11.232113 6.9550772
4.2945366 1.1346676 -0.23279037
5.2592034 1.3875777 -0.094941087
2.0442679 0.53630388 -0.5662961
2.2319894 0.584719 -0.53268409
9.7940645 2.5639458 0.53058195
2.4937193 0.65281999 -0.50106448
16.366629 4.2814965 1.4800787
2.7845531 0.72791618 -0.45585006
33.949272 8.8684425 4.3083253
3.1692042 0.82728863 -0.40216887
4.29074 1.1176549 -0.23237166
5.2524028 1.366192 -0.094731666
2.0461276 0.5291642 -0.5662961
2.2321298 0.57643759 -0.53223425
9.7681456 2.5207567 0.52869785
2.4997852 0.64509177 -0.50182766
16.339029 4.2133989 1.476244
2.7928152 0.71967256 -0.45678869
33.95311 8.7429428 4.304913
3.1643827 0.81424141 -0.40119389
59.869957 15.394295 9.7909212
4.2791395 1.098696 -0.2315343
5.261014 1.3488412 -0.094801471
2.040565 0.51975429 -0.56422555
2.2227974 0.56575781 -0.52953482
9.7575283 2.4817281 0.52765119
2.4831049 0.63108987 -0.4980115
16.308016 4.1417098 1.4720606
2.8164954 0.71477723 -0.46023026
34.002655 8.6292782 4.3073506
3.1595089 0.80123949 -0.40021896
4.2986279 1.0869225 -0.23237166
5.2501802 1.3265483 -0.094522238
2.0348721 0.51074648 -0.56215501
2.2494295 0.56376636 -0.53538352
9.7859335 2.450793 0.52869785
2.4795794 0.62098688 -0.49686664
16.299181 4.0789585 1.4699688
2.8074751 0.70206529 -0.45835301
34.072582 8.5141945 4.3122253
3.1739802 0.79254019 -0.40168139
67.181221 16.76264 10.966683
4.2946439 1.0699805 -0.23195298
5.2588878 1.3082632 -0.094592042
2.0385172 0.50410545 -0.56267262
2.2513838 0.55591035 -0.53538352
9.7866707 2.414712 0.52827919
2.4893563 0.61421072 -0.49839315
16.255287 4.0077267 1.4647394
2.7964828 0.68895268 -0.45616296
34.098232 8.3942814 4.3117375
3.188293 0.78430033 -0.40314382
4.3022318 1.0559338 -0.23216233
5.2711911 1.2918032 -0.094731666
2.0477729 0.498815 -0.56474322
2.2268009 0.541601 -0.52908486
9.7911596 2.3795891 0.52806985
2.4876697 0.60458946 -0.49762988
16.276924 3.9528368 1.4654367
2.8046298 0.68058503 -0.45710155
34.162052 8.283617 4.3161249
3.1832945 0.77129561 -0.40216887
67.857231 16.428949 11.058041
4.3020096 1.03997 -0.23195298
5.2756681 1.2733966 -0.094731666
2.0607727 0.49436823 -0.56784898
2.2305732 0.53427804 -0.52953482
9.7877502 2.3426099 0.5274418
2.4935837 0.59681672 -0.49839315
16.251863 3.8867383 1.4619503
2.8165948 0.67308581 -0.45866591
34.225517 8.1726084 4.3205128
3.1666586 0.75557274 -0.39973149
67.860359 16.179136 11.04928
4.2978415 1.0230978 -0.2315343
5.2684083 1.2521975 -0.094522238
2.0473607 0.48397586 -0.56370795
2.2342293 0.52732635 -0.52998471
9.7876911 2.3083031 0.52702314
2.4764404 0.58403718 -0.49457693
16.241392 3.8273354 1.4598585
2.8091974 0.66147876 -0.45710155
34.310398 8.0727139 4.3278246
3.1768761 0.74688542 -0.40070644
67.882874 15.946801 11.044275
4.3245444 1.0143138 -0.23279037
5.2647443 1.2328948 -0.094382621
2.0490375 0.4768267 -0.56370795
2.2436488 0.52128881 -0.5317843
9.7801256 2.2705078 0.52618575
2.4822893 0.5762766 -0.4953402
16.243011 3.7679133 1.4588128
2.8095646 0.65122324 -0.45678869
34.384785 7.9636388 4.333674
3.1872001 0.7375809 -0.40168139
67.872688 15.694633 11.033637
4.3008132 0.99292088 -0.23132494
5.2729125 1.2154092 -0.094452426
2.0450401 0.4683769 -0.56215501
2.2492542 0.51432198 -0.53268409
9.7802019 2.2345774 0.52576709
2.4881136 0.56848341 -0.49610341
16.213329 3.7014389 1.4549779
2.8002658 0.63877547 -0.4549115
34.509144 7.8656297 4.345861
3.1936262 0.72733331 -0.40216887
41.238541 9.3843126 6.698525
4.3159389 0.9805581 -0.23195298
5.2888236 1.1996511 -0.094661854
2.0561666 0.46299967 -0.56474322
2.2282217 0.50133383 -0.52728528
9.7918396 2.2013028 0.52597642
2.4901805 0.55935955 -0.49610341
16.207348 3.6376224 1.4532349
2.7910228 0.62591469 -0.45303425
34.582874 7.7555547 4.3517108
3.1980824 0.71661413 -0.40241259
41.174667 9.2187157 6.6828809
4.3039103 0.96124893 -0.23111561
5.2890749 1.1803124 -0.094592042
2.0596559 0.45623869 -0.56526077
2.2300441 0.49316409 -0.52728528
9.7530355 2.1550591 0.52346432
2.4940345 0.55108911 -0.49648505
16.188816 3.5741568 1.4504458
2.7931907 0.61616766 -0.45303425
34.684738 7.6449785 4.3609729
3.1929331 0.70318073 -0.40143764
41.231327 9.0728445 6.686636
4.3072395 0.94622052 -0.23111561
5.2816477 1.158345 -0.094382621
2.0650113 0.44986826 -0.5662961
2.2431772 0.48786214 -0.52998471
9.7605 2.1209989 0.52346432
2.4767582 0.53821027 -0.49266884
16.162256 3.5091665 1.4469596
2.7953243 0.60641444 -0.45303425
34.862534 7.5566673 4.3799849
3.1992486 0.6928705 -0.40192512
41.471256 8.9739943 6.7204256
4.3300385 0.93539578 -0.23216233
5.2739291 1.1373757 -0.094173186
2.0533459 0.43982434 -0.56267262
2.248678 0.48084339 -0.5308845
9.753809 2.0856943 0.5227316
2.4824622 0.53038132 -0.4934321
16.139332 3.4452522 1.4438219
2.7954922 0.5962404 -0.45272139
34.997425 7.4580884 4.3936338
3.1976454 0.68143076 -0.40143764
4.337184 0.92110825 -0.23237166
5.2776723 1.119879 -0.094173186
2.0529032 0.43261391 -0.56215501
2.2464461 0.47258198 -0.52998471
9.772397 2.0558066 0.5233596
2.4861283 0.52254933 -0.49381369
16.111671 3.3835196 1.4403358
2.7800548 0.58331674 -0.44990557
34.983109 7.3338356 4.3887591
3.2057164 0.67204428 -0.40216887
4.3206639 0.90263498 -0.23132494
5.2931018 1.1048241 -0.094382621
2.0675676 0.42854983 -0.56577843
2.2346425 0.4623653 -0.52683538
9.7638664 2.0184448 0.52252221
2.4897699 0.51470011 -0.49419534
16.111094 3.3276579 1.4392898
2.7819738 0.57409376 -0.44990557
35.034451 7.2234063 4.3921714
3.1924882 0.65764821 -0.40021896
41.126575 8.4645166 6.6503425
4.3236332 0.8883031 -0.23132494
5.2734189 1.0815184 -0.093963757
2.078516 0.4232569 -0.56836665
2.2362428 0.45456257 -0.52683538
9.7277937 1.9756074 0.52021945
2.4896274 0.50561583 -0.49381369
16.106991 3.2682252 1.4378954
2.7878325 0.56516486 -0.4505313
35.110043 7.1113229 4.398509
3.1830904 0.64413714 -0.3987565
41.16362 8.3224611 6.6515942
4.3188772 0.87162375 -0.23090626
5.2967649 1.0670544 -0.094312809
2.0837696 0.41675609 -0.56940192
2.2416379 0.44751742 -0.52773523
9.7267952 1.9400736 0.51980078
2.4836762 0.49538562 -0.49228725
16.079222 3.2041972 1.4344091
2.8033497 0.55813068 -0.45272139
35.290405 7.0196948 4.4180079
3.1872663 0.63340974 -0.39900026
41.095539 8.1595163 6.6359506
4.3336482 0.85887337 -0.2315343
5.2769175 1.0439006 -0.093893945
2.068151 0.40613005 -0.56474322
2.2508359 0.44118869 -0.52953482
9.7295876 1.9053434 0.51959145
2.4853902 0.48671347 -0.49228725
16.051205 3.1403956 1.430923
2.7858944 0.54455149 -0.44959271
35.603039 6.9527826 4.4540811
3.1953034 0.62341982 -0.39973149
41.181938 8.0273438 6.6453371
4.3405404 0.84450257 -0.23174362
5.2923074 1.0277628 -0.094103374
2.0619678 0.39744624 -0.56267262
2.2504485 0.4329614 -0.52908486
9.7440243 1.8728791 0.52001011
2.4890018 0.47840595 -0.49266884
16.062069 3.084343 1.430923
2.7897182 0.53519642 -0.44990557
36.5746 7.0100746 4.5725379
3.1857622 0.61002147 -0.39826906
41.190304 7.8798399 6.6422081
4.3513098 0.83084333 -0.23216233
5.2997918 1.0100303 -0.094173186
2.0748005 0.39203763 -0.56577843
2.251946 0.42510265 -0.52908486
9.7465773 1.8381119 0.51980078
2.5042439 0.47182396 -0.4953402
16.081097 3.0269296 1.4316202
2.7858372 0.52387208 -0.44896698
37.285564 7.0114894 4.6583343
3.1917739 0.59963107 -0.3987565
41.21756 7.7359996 6.6422081
4.3386197 0.81195116 -0.23132494
5.3072157 0.99226034 -0.09424299
2.0913525 0.38760972 -0.56991959
2.2496564 0.41613755 -0.52818507
9.7058001 1.795362 0.51728868
2.494292 0.46093959 -0.49305046
16.07589 2.9678872 1.4302256
2.7934766 0.51521993 -0.44990557
37.802971 6.9654384 4.7197561
3.1724753 0.58397478 -0.3960754
41.166607 7.5777612 6.6296935
4.3414278 0.79680043 -0.23132494
5.3067136 0.97300863 -0.094173186
2.0812883 0.3782351 -0.56681371
2.268281 0.41180748 -0.53223425
9.7198687 1.7628946 0.51770729
2.4765677 0.44873035 -0.4892343
16.054783 2.9060714 1.4274367
2.7932258 0.50560093 -0.44959271
38.611134 6.9820304 4.817739
3.1724403 0.57310051 -0.39583167
4.3558397 0.78452653 -0.23195298
5.294332 0.95164716 -0.093893945
2.0673161 0.36861771 -0.56267262
2.2677858 0.40354624 -0.5317843
9.7338285 1.7303555 0.51812601
2.4838412 0.44154552 -0.49037915
16.048639 2.8500323 1.4260423
2.7910838 0.49515685 -0.44896698
39.139565 6.9365935 4.8806238
3.1783309 0.5627144 -0.39631912
4.3664193 0.77070451 -0.23237166
5.2897444 0.9317742 -0.093754329
2.0762029 0.36272854 -0.56474322
2.2576618 0.39361992 -0.52908486
9.73981 1.696365 0.51812601
2.5008407 0.43556684 -0.4934321
15.995676 2.7830615 1.4204643
2.7889025 0.48473653 -0.44834125
3.1763642 0.55093718 -0.39583167
4.3651471 0.75477642 -0.23216233
5.3008471 0.9146626 -0.093893945
2.090785 0.35776126 -0.56836665
2.2474968 0.3837682 -0.52638549
9.7614231 1.6650404 0.5189634
2.5081515 0.42782426 -0.49457693
16.001364 2.7265434 1.4201156
2.782788 0.47367182 -0.44708973
3.178268 0.5398469 -0.39583167
4.3598776 0.7382018 -0.23174362
5.2961206 0.89481956 -0.093754329
2.0920212 0.35046035 -0.56836665
2.2449784 0.37527853 -0.52548569
9.7198944 1.6230682 0.51645124
2.5096292 0.41906828 -0.49457693
15.991133 2.6673892 1.4183725
2.7941673 0.46557915 -0.44865409
3.1703422 0.52712065 -0.39461297
4.3663692 0.72363049 -0.23195298
5.3149948 0.878941 -0.094033569
2.0856063 0.341905 -0.5662961
2.2539675 0.36869752 -0.52728528
9.701849 1.5852622 0.51519525
2.5052645 0.40935507 -0.4934321
15.980682 2.608355 1.4166294
2.8016243 0.4567757 -0.44959271
3.1604064 0.51414061 -0.39315054
4.3767543 0.70966625 -0.23237166
5.2864461 0.85527152 -0.093475096
2.082972 0.33401147 -0.56526077
2.2590892 0.3614426 -0.52818507
9.6954889 1.5494976 0.5145672
2.4969847 0.39905897 -0.49152401
15.981819 2.5512955 1.4159322
2.7895467 0.44481528 -0.44740263
3.1719842 0.50466424 -0.39436921
4.4127393 0.69970036 -0.23415108
5.2972999 0.83806425 -0.093614712
2.0803084 0.32613957 -0.56422555
2.2603371 0.35355625 -0.52818507
9.7245188 1.5193416 0.51582325
2.5138803 0.39276418 -0.49457693
15.951259 2.4893448 1.412446
2.7852268 0.4341644 -0.446464
3.1776497 0.49419814 -0.39485672
4.4033136 0.68245625 -0.23352307
5.3120503 0.82140011 -0.093824141
2.0890725 0.32004657 -0.5662961
2.2577047 0.34507459 -0.52728528
9.7495079 1.4883991 0.51686996
2.509414 0.38309726 -0.4934321
15.95985 2.4336524 1.412446
2.7906308 0.42503363 -0.44708973
3.1852429 0.48399836 -0.39558792
4.372097 0.6619994 -0.23174362
5.3148856 0.80285126 -0.093824141
2.1092827 0.31561163 -0.57147247
2.2511859 0.33604133 -0.52548569
9.6911764 1.4466312 0.51352042
2.5029683 0.37317786 -0.4919056
15.94066 2.3738148 1.4100057
2.8077288 0.41761541 -0.44959271
3.1672771 0.46996242 -0.39315054
4.376358 0.64702493 -0.23184831
5.3135619 0.78463876 -0.093754329
2.0912559 0.30545428 -0.5662961
2.2754281 0.33194941 -0.5308845
9.7080259 1.414519 0.51414847
2.4964848 0.36330822 -0.49037915
15.956734 2.3193066 1.4107028
2.8169177 0.40943816 -0.4508442
3.1550665 0.45746347 -0.39144436
4.380456 0.63279527 -0.23195298
5.3043923 0.76437604 -0.0935449
2.0922573 0.2985172 -0.5662961
2.2746434 0.32372946 -0.53043461
9.7010403 1.3789341 0.51352042
2.5015631 0.35557947 -0.49114239
15.920939 2.2602217 1.406868
2.8163738 0.39932472 -0.4505313
3.1704023 0.44839403 -0.39315054
4.3747268 0.61638707 -0.2315343
5.3070283 0.7458542 -0.0935449
2.0894594 0.29068008 -0.56526077
2.2718992 0.3152523 -0.52953482
9.7057943 1.3450649 0.51352042
2.5125124 0.34819326 -0.49305046
15.928733 2.2046292 1.406868
2.8099234 0.38840997 -0.44927984
3.1758816 0.43786597 -0.39363801
4.3649797 0.59948099 -0.23090626
5.3214869 0.72895408 -0.093754329
2.0904615 0.28338414 -0.56526077
2.2613986 0.3057538 -0.52683538
9.698555 1.3095709 0.51289243
2.5176039 0.33994555 -0.49381369
15.920537 2.1468799 1.4054736
2.7916851 0.37596324 -0.44615117
3.1695209 0.4257195 -0.39266306
4.3611073 0.58344501 -0.23059224
5.3160706 0.70931494 -0.093614712
2.0990989 0.27709815 -0.56733137
2.2701807 0.29887503 -0.52863503
9.6674232 1.2710291 0.51100832
2.510989 0.3301335 -0.49228725
15.912129 2.0892222 1.404079
2.8047323 0.36775628 -0.44802836
3.1650827 0.41388172 -0.39193183
4.3532147 0.56692964 -0.23006889
5.3244638 0.69152528 -0.093719423
2.0962212 0.26927638 -0.5662961
2.2828078 0.29243499 -0.53133446
9.659915 1.2357526 0.51038033
2.521863 0.32261142 -0.49419534
15.911422 2.0326519 1.4033818
2.8177559 0.35946417 -0.44990557
3.1822622 0.4048343 -0.39388174
4.3829069 0.55524367 -0.2315343
5.3050213 0.67018193 -0.093335465
2.0933144 0.2614781 -0.56526077
2.2741454 0.28325975 -0.52908486
9.6641693 1.202023 0.51038033
2.5190775 0.3133212 -0.4934321
15.870965 1.9712152 1.3991983
2.811152 0.34865287 -0.44865409
3.1974461 0.39543131 -0.39558792
4.3729239 0.53847951 -0.23090626
5.3192372 0.6531207 -0.0935449
2.0903788 0.2537044 -0.56422555
2.2828591 0.27625564 -0.5308845
9.66434 1.1678042 0.51017094
2.5201559 0.30452663 -0.4934321
15.869837 1.9148443 1.398501
2.8084297 0.33836469 -0.44802836
44.187153 5.3159461 5.464622
3.196836 0.38403013 -0.3953442
4.3747773 0.5232107 -0.23090626
5.2738295 0.62886769 -0.092707187
2.0931704 0.24663158 -0.56474322
2.2605841 0.26555854 -0.52548569
9.6485214 1.1317329 0.50912422
2.5173035 0.29526964 -0.49266884
15.88434 1.8603593 1.3991983
2.8017454 0.32764354 -0.4467769
3.1942136 0.37240815 -0.39485672
4.3686414 0.50701451 -0.23048759
5.168725 0.59804207 -0.090822324
2.1074538 0.24085951 -0.56836665
2.2731144 0.25898901 -0.52818507
9.6800022 1.1028984 0.51058966
2.5280721 0.28759086 -0.49457693
15.831347 1.798159 1.3939689
2.8067975 0.31830606 -0.44740263
3.179714 0.35947269 -0.39290681
4.3703847 0.49176294 -0.23048759
5.0991406 0.57286263 -0.089565754
2.1006014 0.23265146 -0.5662961
2.2797718 0.25209159 -0.52953482
9.6480598 1.0651591 0.50870556
2.509546 0.27661404 -0.49076074
15.825644 1.7415744 1.392923
2.8196189 0.31029233 -0.44927984
3.1927278 0.35022575 -0.39436921
4.3680205 0.47683489 -0.23027822
5.0454459 0.54900408 -0.088588417
2.0975196 0.22527115 -0.56526077
2.2883887 0.24496232 -0.53133446
9.6239157 1.0285007 0.50724012
2.5143542 0.26870716 -0.49152401
15.831332 1.6890882 1.392923
2.8167562 0.30003026 -0.44865409
3.1978791 0.33949721 -0.39485672
4.3815756 0.46284246 -0.23090626
4.9896593 0.5253157 -0.087576173
2.0982933 0.21794753 -0.56526077
2.2892296 0.23697335 -0.53133446
9.6353941 0.99571937 0.50765884
2.5191827 0.26033172 -0.49228725
15.829205 1.6330018 1.3922259
2.8138564 0.289792 -0.44802836
3.2108927 0.32954919 -0.39631912
4.371243 0.44632879 -0.23027822
4.9755473 0.50627458 -0.08729694
2.1028857 0.21100798 -0.5662961
2.2784083 0.22781815 -0.52863503
9.6229115 0.96049446 0.50682145
2.520076 0.25153708 -0.49228725
15.830845 1.5773385 1.3918772
2.8109195 0.27957627 -0.44740263
3.2001712 0.31716353 -0.39485672
4.3668113 0.43047857 -0.22996421
4.9494228 0.48616788 -0.086808272
2.1074553 0.20403904 -0.56733137
2.2791898 0.21986304 -0.52863503
9.6063261 0.92498624 0.50577474
2.5209386 0.24273939 -0.49228725
15.832287 1.5216908 1.3915285
2.8236763 0.27089509 -0.44927984
3.1894023 0.3048583 -0.39339426
4.3802176 0.4163658 -0.23059224
4.9232183 0.46624738 -0.086319603
2.1081548 0.19668186 -0.56733137
2.2896454 0.21280695 -0.5308845
9.5896082 0.88960534 0.50472802
2.5139508 0.23321331 -0.49076074
15.809728 1.4638407 1.3890882
2.8246047 0.26103622 -0.44927984
3.2062609 0.29517835 -0.3953442
4.3935776 0.40216669 -0.23122028
4.8810043 0.44506779 -0.085551701
2.0934355 0.18793936 -0.56319028
2.2981381 0.20550805 -0.53268409
9.5926552 0.85612345 0.50472802
2.5186608 0.22478496 -0.49152401
15.82665 1.4097019 1.3901341
2.8314016 0.25170025 -0.45021844
3.2112267 0.28433394 -0.39583167
4.3810277 0.38560084 -0.23048759
4.8665919 0.42662889 -0.085272454
2.1056268 0.18162732 -0.5662961
2.2910752 0.19681703 -0.5308845
9.5876255 0.82194865 0.50430936
2.5233424 0.21632653 -0.49228725
15.79971 1.3517416 1.3873451
2.8047082 0.23946193 -0.44583827
3.2280231 0.27447057 -0.39778158
4.3823466 0.37030885 -0.23048759
4.8401542 0.40728986 -0.084783792
2.1120238 0.17475353 -0.56784898
2.2820375 0.18801998 -0.52863503
9.5864563 0.78815132 0.50410002
2.5358219 0.20848282 -0.49457693
15.764618 1.2933197 1.3838589
2.8173397 0.23063919 -0.44771552
3.2131331 0.26190993 -0.39583167
4.3875942 0.35533062 -0.2306969
4.8355665 0.38991094 -0.084679075
2.1145468 0.16753215 -0.56836665
2.2885079 0.18051213 -0.52998471
9.5891485 0.75468093 0.50410002
2.5267482 0.19885902 -0.49266884
15.788898 1.239846 1.385602
2.8260047 0.22141987 -0.44896698
3.2061114 0.25007564 -0.39485672
4.3927903 0.34032238 -0.23090626
4.812973 0.37118283 -0.084260218
2.1112661 0.15985973 -0.56733137
2.2930105 0.17281494 -0.5308845
9.6156235 0.72300762 0.50535601
2.5332999 0.19048116 -0.49381369
15.765316 1.1826342 1.3831617
2.8307002 0.21184801 -0.44959271
3.1990466 0.23829202 -0.39388174
4.3859844 0.32439616 -0.23048759
4.7783422 0.35173881 -0.083631933
2.1002502 0.15165372 -0.56422555
2.3110933 0.16606729 -0.53493363
9.5782452 0.68657988 0.50326258
2.5300331 0.18135574 -0.49305046
15.737551 1.1253179 1.3803726
2.8314223 0.20196632 -0.44959271
3.2156997 0.2282473 -0.39583167
4.3910747 0.30936378 -0.2306969
4.759593 0.33365974 -0.083282888
2.1046212 0.14458679 -0.56526077
2.2941611 0.15680249 -0.5308845
9.624423 0.65612739 0.5055654
2.5463207 0.17359075 -0.49610341
15.733432 1.0698394 1.3796754
2.8202853 0.19127883 -0.44771552
3.2243991 0.21755624 -0.3968066
4.4200268 0.29590285 -0.23216233
4.7507515 0.31637791 -0.083108358
2.1089687 0.13749021 -0.5662961
2.2694139 0.14715466 -0.5250358
8.0839062 0.52418137 0.42454931
2.5527885 0.16508199 -0.49724829
15.756952 1.0161985 1.3814185
2.8209357 0.18143363 -0.44771552
3.2211766 0.20604691 -0.39631912
4.4090738 0.27971449 -0.2315343
4.7497792 0.30049458 -0.083073452
2.119077 0.13072187 -0.56888431
2.2835047 0.14046618 -0.52818507
8.089674 0.49620241 0.42475864
2.5513895 0.15604955 -0.49686664
15.720629 0.95876789 1.3779322
2.8372953 0.17304064 -0.45021844
3.2139165 0.19488248 -0.3953442
89.053291 5.3843741 14.130414
4.4059892 0.26485103 -0.23132494
4.7328343 0.28284028 -0.082759313
2.1233559 0.12391957 -0.56991959
2.2975998 0.13328379 -0.53133446
8.1232595 0.46980801 0.42643344
2.5460129 0.14724843 -0.49572179
15.835112 0.9130494 1.3876938
2.8398542 0.16324818 -0.4505313
3.2185409 0.18388976 -0.39583167
89.04985 5.072228 14.126973
4.3969169 0.24890617 -0.2308016
4.699851 0.26440936 -0.082165927
2.1064148 0.11555497 -0.56526077
2.2999969 0.12536831 -0.5317843
8.1208611 0.44123462 0.42622405
2.5406301 0.13804127 -0.49457693
15.754643 0.85323942 1.3803726
2.8384345 0.153227 -0.45021844
3.2270923 0.17307824 -0.3968066
4.4177036 0.2346146 -0.23184831
4.6887636 0.24737108 -0.081956498
2.1029468 0.10800278 -0.56422555
2.3023667 0.11743882 -0.53223425
8.166235 0.41511336 0.42852688
2.5489397 0.12956999 -0.49610341
15.646095 0.79259878 1.3706112
2.8389518 0.14331868 -0.45021844
3.2237115 0.16161442 -0.39631912
4.4264746 0.21958926 -0.23226699
4.691597 0.23109989 -0.081991412
2.1187479 0.10140073 -0.56836665
2.2871902 0.10866091 -0.52863503
8.1796045 0.38717371 0.4291549
2.539571 0.12020815 -0.49419534
15.628865 0.73704362 1.368868
2.8315423 0.13303643 -0.44896698
3.2401195 0.15110105 -0.39826906
4.4152431 0.20358559 -0.23163895
4.6943722 0.21481192 -0.08202631
2.1113694 0.093661278 -0.5662961
2.2992368 0.10119215 -0.53133446
8.2467527 0.36150342 0.43260908
2.5419364 0.11142796 -0.49457693
15.631343 0.68248004 1.368868
2.8477774 0.12384022 -0.45146993
3.2168283 0.13876253 -0.3953442
4.4039545 0.18766093 -0.23101093
4.6711183 0.19741194 -0.081607454
2.1116834 0.086290091 -0.5662961
2.3034701 0.093322851 -0.53223425
8.2659245 0.333437 0.4335511
2.5325019 0.10215794 -0.49266884
14.323693 0.57530278 1.2541711
2.8481925 0.11389811 -0.45146993
3.2252271 0.12784804 -0.39631912
4.4145613 0.17267837 -0.2315343
4.6458025 0.18009725 -0.081153691
2.1081107 0.078775577 -0.56526077
2.3057292 0.085353144 -0.53268409
8.3069029 0.3075037 0.43564454
2.5446143 0.093752682 -0.49495855
14.265883 0.52310622 1.2489418
2.8485725 0.10395461 -0.45146993
14.057097 0.510544 1.7271326
3.2375567 0.11701848 -0.39778158
4.4291091 0.15776414 -0.23226699
4.6703553 0.16554116 -0.081572548
2.1045115 0.071285062 -0.56422555
2.3235285 0.078297742 -0.53673327
8.3678102 0.28051463 0.43878472
2.5449262 0.084869072 -0.49495855
14.148145 0.46933854 1.2384831
2.8331072 0.093983099 -0.44896698
3.2537992 0.10680337 -0.39973149
4.4156346 0.14262535 -0.2315343
4.6788998 0.14949399 -0.081712164
2.1124601 0.064541258 -0.5662961
2.2984655 0.069422305 -0.5308845
8.3847094 0.25178114 0.43962207
2.5491185 0.076546475 -0.49572179
14.069963 0.42005038 1.2315106
2.8334179 0.084095076 -0.44896698
3.2382782 0.094979919 -0.39778158
4.4001336 0.12674977 -0.2306969
4.6953845 0.1336145 -0.081991412
2.1242692 0.057110246 -0.56940192
2.2928495 0.061242029 -0.52953482
8.3855371 0.22251327 0.43962207
2.549382 0.067203537 -0.49572179
13.971824 0.36586723 1.222795
2.8534544 0.074222438 -0.45209566
11.714038 0.30469891 1.4387896
3.2266834 0.083367154 -0.39631912
19.498451 0.50037235 3.0892682
4.3885889 0.11032146 -0.23006889
4.6898246 0.117075 -0.081886694
2.1147993 0.049468372 -0.56681371
2.3086445 0.053197555 -0.53313404
8.3982763 0.19204906 0.44025013
2.5456755 0.058213681 -0.49495855
11.530974 0.26167861 1.0090892
2.8378971 0.063906394 -0.44959271
11.201066 0.25027484 1.3756613
3.2229981 0.071452931 -0.39583167
13.30687 0.29268596 2.1081111
4.384954 0.094916232 -0.22985955
4.6982193 0.10005425 -0.08202631
2.1091645 0.041971181 -0.56526077
2.3088162 0.045137942 -0.53313404
8.4568052 0.16385624 0.44328558
2.5340858 0.049099602 -0.49266884
11.248951 0.21599199 0.98433697
2.8420527 0.054074299 -0.45021844
11.068893 0.20866975 1.3593308
3.2391057 0.060497828 -0.39778158
4.3772707 0.079463132 -0.22944085
4.7185335 0.084010765 -0.082375363
2.1073666 0.034577321 -0.56474322
2.3089595 0.037078883 -0.53313404
8.499239 0.13648671 0.44548368
2.5460198 0.040441312 -0.49495855
11.209793 0.1760956 0.9808507
2.8461747 0.044215318 -0.4508442
10.944509 0.1681072 1.3439753
3.2472367 0.049310572 -0.3987565
20.51375 0.30434757 3.9879084
4.3675365 0.064035557 -0.22891749
4.7727723 0.069146149 -0.083317786
2.1132696 0.027296323 -0.5662961
2.285687 0.029123316 -0.52773523
8.4856834 0.10664004 0.44475099
2.557924 0.031700302 -0.49724829
11.2462 0.13740556 0.98398834
2.842355 0.034727767 -0.45021844
10.819954 0.1303091 1.3286197
3.2434125 0.038497154 -0.39826906
20.351707 0.23444693 3.956234
4.3357706 0.049190279 -0.22724274
4.7949796 0.052726232 -0.083701737
2.1172121 0.020324824 -0.56733137
2.2974665 0.021252146 -0.53043461
6.5647206 0.059582666 0.34405661
2.5580151 0.023217037 -0.49724829
11.222686 0.099900492 0.98189658
2.8622122 0.024977503 -0.45334715
10.750867 0.091947705 1.3200889
3.2316167 0.027074648 -0.3968066
11.053837 0.090675049 1.7508147
20.055962 0.16102895 3.8986096
4.3219357 0.033946421 -0.22651003
4.8091326 0.036094382 -0.083946079
2.11727 0.012933687 -0.56733137
2.2936294 0.013211492 -0.52953482
6.4730158 0.036152292 0.33924171
2.5423746 0.014199358 -0.49419534
11.23492 0.060787089 0.98294246
2.858331 0.014967646 -0.45272139
10.743182 0.054376557 1.3191139
3.2436023 0.01585138 -0.39826906
10.884205 0.051296372 1.7239079
20.028915 0.090889528 3.8932669
4.3320136 0.018902265 -0.22703341
4.8132286 0.019321928 -0.084015884
2.1095748 0.0055221645 -0.56526077
2.3092513 0.0052399156 -0.53313404
6.696795 0.014023738 0.35096496
2.5502617 0.0053404956 -0.49572179
12.362755 0.023737118 1.0816028
2.8583655 0.0049893567 -0.45272139
10.725441 0.016844606 1.3169203
3.2436378 0.004529682 -0.39826906
10.791475 0.013186744 1.7092031
20.152796 0.021099169 3.9173088
4.3300567 0.0037797678 -0.22692874
4.8272643 0.0025265533 -0.084260218
2.113445 -0.0018443289 -0.5662961
2.3131528 -0.0028260509 -0.53403383
6.549006 -0.0091441432 0.34321922
2.5483019 -0.0035581028 -0.4953402
12.21931 -0.019194061 1.0690523
2.8465135 -0.0049681081 -0.4508442
10.72345 -0.020587571 1.3166765
3.2634847 -0.0068350355 -0.40070644
10.757874 -0.024408884 1.7038844
20.050657 -0.048993096 3.8974648
4.306076 -0.011273305 -0.22567266
4.8252439 -0.01431683 -0.084225312
2.1211545 -0.0088851228 -0.56836665
2.29949 -0.010434826 -0.5308845
6.6687746 -0.031426091 0.34949955
2.5580921 -0.012054814 -0.49724829
11.725072 -0.057299968 1.0258231
2.8464816 -0.014407461 -0.4508442
10.711411 -0.05608533 1.315214
3.2435935 -0.017549701 -0.39826906
10.739956 -0.059983857 1.7010686
20.046459 -0.11546058 3.8967016
4.2960291 -0.025493449 -0.2251493
4.8291693 -0.030342963 -0.084295124
2.1249712 -0.016689826 -0.56940192
2.2955422 -0.018430186 -0.52998471
6.6087084 -0.05421276 0.3463594
2.5541046 -0.021397717 -0.49648505
2.842459 -0.024805764 -0.45021844
10.723062 -0.093578741 1.3166765
3.2435124 -0.028871847 -0.39826906
10.735731 -0.097437076 1.7004429
20.05768 -0.18904477 3.8989913
4.2699428 -0.040989771 -0.22378856
4.8610277 -0.047512438 -0.084853604
2.1133096 -0.023975767 -0.5662961
2.2974076 -0.026866432 -0.53043461
6.5126033 -0.077296764 0.34133515
2.5481248 -0.030243177 -0.4953402
11.588889 -0.1395691 1.0139699
2.8502562 -0.034824181 -0.45146993
10.712722 -0.1327571 1.3154578
3.2433848 -0.04075972 -0.39826906
10.727401 -0.13668416 1.6991913
20.062788 -0.25913405 3.900136
4.2737684 -0.055946697 -0.22399792
